2854.43 2858.89 2862.15 2865.58 2871.74 2877.71 2881.08 2887.44 2896.16 2904.61 2913.93 2922.28 2926.26 2927.63 2926.69 2923.64 2918.48 2912.17 2906.14 2898.92 2888.76 2878.84 2868.83 2857.52 2844.21 2833.64 2825.50 2815.36 2804.01 2803.63 2809.22 2813.37 2811.92 2801.98 2788.26 2775.05 2762.36 2751.16 2742.98 2738.94 2732.56 2725.63 2723.08 2722.27 2720.67 2716.66 2706.95 2690.21 2665.79 2643.77 2636.05 2631.23 2625.98 2620.81 2615.21 2610.49 2609.86 2616.03 2624.25 2629.21 2634.00 2638.87 2644.34 2650.22 2655.93 2660.66 2666.83 2668.22 2664.59 2659.65 2652.98 2645.14 2639.19 2636.37 2635.13 2634.96 2637.04 2639.87 2642.12 2642.63 2643.22 2648.68 2656.14 2660.82 2650.55 2618.90 2583.87 2558.73 2537.54 2518.42 2501.79 2489.82 2481.34 2476.07 2472.63 2470.96 2468.60 2464.67 2461.07 2458.73 2458.42 2463.50 2474.24 2484.16 2492.66 2501.35 2510.15 2519.94 2526.39 2529.89 2533.11 2531.76 2531.58 2529.21 2524.31 2525.31 2532.82 2542.88 2543.31 2539.57 2534.92 2528.62 2523.08 2520.98 2525.67 2536.88 2548.54 2554.80 2554.04 2550.75 2547.03 2542.35 2537.61 2531.24 2519.35 2502.55 2489.88 2475.12 2459.30 2448.91 2444.74 2442.69 2440.85 2445.54 2452.67 2461.56 2481.07 2503.00 2516.43 2522.05 2531.22 2538.96 2544.41 2548.36 2550.03 2550.64
2850.95 2855.83 2858.03 2860.28 2864.88 2870.79 2877.21 2883.43 2891.76 2901.08 2909.93 2917.90 2922.32 2923.68 2922.92 2919.10 2912.80 2906.74 2901.29 2894.06 2885.52 2876.17 2866.31 2855.36 2842.35 2830.99 2820.81 2809.28 2799.51 2792.62 2789.31 2792.01 2791.20 2783.49 2771.46 2758.76 2748.92 2742.87 2739.83 2737.32 2732.70 2727.80 2725.08 2723.98 2723.05 2721.06 2708.16 2686.04 2660.70 2642.27 2635.38 2630.67 2626.29 2621.63 2616.55 2612.30 2612.03 2618.88 2624.81 2629.23 2634.50 2639.90 2645.98 2652.66 2659.24 2663.90 2665.21 2662.14 2658.62 2654.69 2649.53 2645.34 2644.52 2644.04 2645.14 2647.64 2650.99 2655.63 2661.31 2664.75 2665.14 2665.44 2669.29 2675.98 2667.02 2636.36 2601.95 2575.50 2557.82 2539.03 2520.95 2505.19 2494.35 2487.97 2484.48 2483.89 2480.98 2476.53 2473.73 2473.24 2475.49 2482.68 2494.60 2504.07 2510.46 2516.06 2524.28 2532.00 2535.19 2538.14 2540.03 2536.67 2536.83 2535.83 2533.83 2536.11 2541.82 2545.69 2544.19 2541.95 2536.29 2527.45 2521.76 2526.64 2540.06 2553.51 2561.95 2564.85 2563.29 2558.72 2554.58 2550.95 2546.27 2540.36 2527.67 2509.27 2491.56 2476.02 2465.21 2464.82 2465.39 2459.12 2452.33 2455.23 2465.99 2477.55 2497.72 2519.69 2531.69 2536.29 2543.37 2554.42 2561.28 2564.19 2563.90 2562.94
2849.36 2853.14 2855.76 2858.23 2860.83 2866.04 2873.89 2879.72 2887.92 2897.49 2905.25 2910.68 2914.28 2915.68 2914.88 2911.68 2906.18 2898.65 2891.55 2885.63 2879.02 2870.53 2860.01 2848.08 2836.78 2825.75 2813.45 2801.42 2794.37 2787.35 2780.30 2776.25 2771.11 2764.78 2756.66 2745.99 2740.75 2739.56 2738.14 2735.81 2732.57 2728.88 2726.59 2725.34 2724.11 2720.77 2704.31 2680.60 2654.83 2639.61 2634.15 2629.55 2625.63 2621.33 2617.17 2615.73 2615.85 2618.89 2623.76 2628.44 2634.39 2640.69 2646.97 2654.62 2661.95 2666.29 2665.01 2660.06 2657.35 2654.88 2652.96 2653.34 2653.97 2655.79 2662.18 2669.14 2674.56 2679.94 2689.68 2696.10 2697.21 2693.39 2687.54 2688.63 2686.13 2658.15 2626.92 2604.30 2584.42 2563.18 2543.34 2526.96 2514.50 2504.81 2498.90 2499.96 2499.14 2496.36 2494.84 2496.13 2499.68 2506.15 2513.52 2520.90 2526.54 2530.60 2536.61 2543.82 2545.93 2544.21 2542.50 2542.07 2544.94 2544.70 2543.22 2544.46 2548.42 2550.95 2550.09 2544.83 2538.26 2532.94 2530.10 2540.62 2556.22 2566.16 2569.47 2569.36 2567.53 2564.61 2563.09 2559.62 2554.36 2549.08 2537.11 2518.76 2501.97 2492.67 2490.36 2495.38 2493.45 2479.83 2465.47 2462.94 2473.78 2490.30 2511.50 2532.29 2545.75 2551.25 2554.55 2564.29 2571.57 2576.76 2575.67 2573.71
2848.61 2851.34 2854.24 2857.21 2860.42 2865.38 2872.05 2878.64 2885.92 2893.13 2899.08 2902.61 2904.76 2905.84 2905.09 2903.00 2898.70 2890.46 2881.97 2876.36 2870.63 2864.28 2853.63 2840.05 2828.95 2818.09 2805.69 2797.03 2790.35 2783.52 2776.28 2768.37 2760.61 2754.79 2748.72 2742.42 2739.45 2738.07 2736.73 2734.36 2732.33 2729.53 2727.38 2725.95 2724.16 2720.33 2702.94 2679.57 2653.07 2638.29 2632.68 2627.37 2623.01 2618.75 2616.64 2616.52 2616.51 2617.17 2621.47 2626.99 2633.39 2639.30 2644.63 2655.17 2664.35 2669.22 2669.22 2665.33 2662.25 2659.43 2660.54 2666.24 2667.61 2670.58 2681.43 2695.88 2707.05 2716.79 2726.22 2728.63 2727.32 2721.61 2710.57 2705.76 2716.80 2717.62 2658.20 2627.84 2608.76 2584.14 2563.02 2549.49 2540.11 2530.51 2520.34 2520.84 2523.94 2526.05 2526.12 2525.14 2526.38 2528.76 2532.13 2537.99 2544.31 2547.97 2551.96 2556.94 2558.80 2554.56 2551.17 2553.80 2558.30 2555.17 2552.94 2553.63 2555.79 2558.15 2557.32 2549.50 2546.52 2547.64 2546.28 2554.34 2569.06 2578.10 2578.62 2574.30 2572.12 2573.72 2574.33 2569.35 2563.03 2559.99 2547.83 2531.28 2522.60 2516.89 2516.89 2521.72 2518.10 2501.31 2483.20 2478.56 2484.46 2502.66 2524.22 2543.10 2558.36 2566.41 2564.75 2569.79 2577.50 2582.60 2581.91 2578.58
2847.22 2849.62 2853.32 2857.71 2861.86 2865.40 2870.19 2876.74 2882.56 2886.96 2891.17 2894.53 2896.31 2896.77 2895.95 2894.18 2890.38 2883.04 2875.86 2869.08 2861.76 2854.96 2845.40 2833.43 2820.38 2808.99 2800.90 2793.69 2787.02 2780.00 2771.86 2764.25 2757.02 2749.54 2743.43 2740.43 2738.75 2737.23 2735.37 2733.11 2731.71 2729.70 2727.51 2725.87 2724.07 2721.09 2705.23 2681.53 2654.00 2638.08 2631.34 2624.62 2619.58 2616.81 2616.51 2616.51 2616.51 2616.81 2619.95 2625.62 2632.58 2637.73 2643.29 2655.43 2665.96 2673.27 2676.25 2676.33 2675.33 2671.26 2671.09 2682.73 2690.74 2696.77 2710.03 2725.73 2739.76 2752.65 2760.49 2761.74 2755.73 2746.82 2736.28 2726.48 2736.59 2763.20 2711.64 2656.46 2632.65 2609.92 2588.28 2574.38 2568.76 2558.34 2544.61 2545.54 2552.87 2557.46 2558.51 2557.40 2554.48 2550.73 2550.73 2554.59 2560.69 2563.92 2565.65 2566.81 2566.37 2562.65 2558.84 2561.02 2565.03 2562.77 2561.74 2563.25 2565.75 2570.48 2569.65 2562.84 2564.49 2566.77 2565.04 2569.04 2580.01 2584.87 2581.08 2575.77 2574.87 2579.01 2582.66 2579.12 2572.67 2569.04 2559.67 2549.66 2543.78 2537.56 2540.60 2544.35 2538.36 2521.69 2504.38 2502.31 2505.08 2518.56 2536.80 2554.05 2570.01 2579.44 2577.96 2578.84 2583.21 2585.32 2583.13 2581.23
2844.50 2847.33 2851.13 2856.05 2859.71 2862.23 2867.04 2873.65 2878.44 2880.97 2884.01 2887.30 2888.57 2888.03 2886.99 2885.87 2883.51 2877.77 2870.56 2863.57 2854.91 2845.14 2835.17 2824.17 2811.33 2800.71 2796.04 2790.21 2783.99 2775.93 2767.17 2759.71 2752.70 2745.26 2740.77 2739.08 2737.60 2736.06 2733.72 2732.15 2730.90 2729.26 2727.33 2725.70 2724.19 2722.14 2709.29 2684.87 2656.81 2639.07 2631.19 2622.92 2618.23 2616.55 2616.51 2616.51 2616.52 2617.18 2620.59 2626.18 2633.13 2639.60 2647.50 2658.83 2669.46 2679.01 2687.08 2693.84 2697.20 2694.78 2691.21 2698.40 2712.54 2725.13 2738.59 2753.46 2768.84 2784.91 2799.89 2802.60 2785.71 2768.91 2756.21 2747.99 2752.41 2758.66 2728.75 2701.07 2676.31 2648.29 2627.29 2610.98 2602.36 2590.08 2574.78 2577.61 2586.27 2589.90 2589.24 2586.51 2580.17 2570.90 2568.10 2570.43 2575.20 2576.65 2575.97 2574.91 2572.83 2569.23 2564.29 2565.27 2569.74 2570.77 2572.09 2575.95 2582.50 2589.79 2586.99 2579.16 2582.67 2584.81 2584.04 2585.99 2590.44 2586.39 2580.10 2577.76 2577.81 2579.63 2582.77 2582.88 2580.56 2579.03 2573.69 2572.93 2568.10 2562.39 2568.31 2570.03 2559.86 2540.05 2527.48 2528.82 2528.83 2535.91 2552.19 2568.90 2581.53 2586.80 2587.95 2588.80 2589.20 2588.48 2586.64 2588.16
2841.73 2844.80 2848.36 2853.80 2857.92 2861.18 2865.94 2871.02 2875.31 2877.73 2879.86 2881.72 2882.29 2881.45 2880.77 2880.42 2878.95 2873.07 2865.07 2857.98 2849.43 2838.94 2826.62 2813.95 2802.90 2796.88 2792.14 2786.90 2780.33 2770.88 2761.80 2755.73 2748.70 2742.50 2739.15 2737.31 2735.57 2733.64 2732.08 2731.09 2730.12 2728.92 2727.41 2725.79 2724.35 2722.86 2714.46 2689.49 2660.74 2642.48 2635.24 2627.04 2620.36 2616.90 2616.51 2616.51 2616.73 2618.78 2621.86 2627.34 2633.95 2641.46 2652.85 2664.91 2674.94 2686.31 2703.88 2720.27 2729.14 2728.52 2723.71 2722.23 2733.12 2746.38 2764.06 2781.03 2797.62 2816.45 2836.65 2839.80 2812.47 2789.17 2774.12 2768.72 2771.02 2771.87 2753.36 2736.60 2716.75 2691.34 2669.87 2653.82 2638.13 2620.89 2609.01 2613.28 2618.57 2619.40 2616.42 2609.51 2599.90 2589.40 2586.18 2587.62 2591.09 2589.94 2586.86 2583.92 2580.77 2576.71 2573.50 2574.55 2577.40 2579.54 2583.75 2594.27 2607.30 2614.65 2605.38 2595.47 2599.16 2601.99 2603.92 2606.88 2601.73 2590.60 2584.40 2582.69 2584.45 2585.51 2586.27 2588.62 2591.04 2591.29 2592.83 2600.38 2597.90 2593.48 2600.02 2598.22 2583.09 2562.53 2556.81 2558.85 2555.46 2554.13 2566.88 2580.54 2587.22 2592.27 2597.43 2599.76 2595.28 2592.09 2593.43 2596.61
2838.72 2841.54 2845.82 2852.56 2858.13 2862.20 2865.08 2868.70 2872.96 2875.41 2877.13 2878.08 2878.62 2878.44 2878.10 2877.91 2877.08 2873.18 2866.93 2858.91 2844.77 2833.53 2821.62 2808.28 2798.96 2794.15 2789.19 2783.95 2777.22 2767.61 2759.15 2752.71 2745.62 2739.97 2736.44 2734.13 2732.84 2731.53 2730.88 2730.36 2729.67 2728.59 2727.39 2725.92 2724.50 2723.17 2718.05 2695.75 2668.26 2652.60 2644.74 2636.26 2626.09 2619.38 2617.51 2617.33 2618.92 2623.04 2625.41 2629.23 2634.60 2641.03 2655.09 2669.92 2680.51 2692.59 2711.97 2735.81 2751.47 2756.38 2755.17 2753.76 2758.94 2769.60 2786.68 2808.63 2829.58 2852.85 2875.16 2868.47 2837.20 2811.88 2797.36 2789.68 2791.86 2793.65 2778.88 2758.40 2737.86 2719.40 2701.33 2684.56 2667.26 2651.52 2641.69 2642.41 2642.33 2638.68 2632.41 2623.37 2613.64 2607.54 2604.97 2604.43 2606.18 2603.78 2599.25 2594.67 2590.17 2584.37 2582.30 2585.39 2589.18 2593.72 2603.83 2620.68 2635.29 2639.95 2623.69 2611.36 2611.12 2612.75 2618.86 2620.19 2607.18 2597.49 2596.40 2596.95 2599.85 2599.66 2596.68 2596.16 2601.95 2607.58 2615.52 2625.24 2626.64 2626.79 2631.88 2625.69 2609.86 2594.00 2589.02 2587.99 2581.44 2573.64 2578.43 2587.48 2591.76 2596.12 2600.87 2600.76 2596.84 2595.44 2597.64 2601.54
2837.00 2841.40 2846.34 2852.90 2858.45 2860.91 2862.58 2866.22 2870.00 2871.98 2873.62 2874.81 2875.81 2876.00 2875.90 2875.70 2875.82 2876.70 2878.38 2874.81 2851.26 2830.95 2816.23 2804.18 2797.12 2792.03 2787.04 2781.22 2774.16 2765.30 2757.86 2751.09 2744.15 2737.85 2733.29 2731.98 2731.56 2730.85 2730.39 2729.84 2729.17 2728.13 2727.00 2725.76 2724.50 2723.28 2720.34 2704.36 2684.71 2670.71 2660.44 2650.94 2639.82 2632.62 2626.82 2625.06 2627.72 2631.15 2632.60 2633.30 2635.84 2641.49 2657.80 2676.30 2685.43 2695.26 2711.88 2737.18 2756.18 2770.18 2779.75 2783.85 2786.31 2796.35 2811.19 2832.46 2859.99 2887.99 2901.53 2883.78 2852.63 2835.96 2826.31 2815.19 2815.41 2813.42 2795.44 2776.92 2759.01 2742.13 2724.75 2707.70 2691.89 2679.91 2669.99 2666.18 2661.99 2654.62 2644.50 2634.33 2627.00 2624.21 2620.20 2617.05 2618.94 2619.69 2617.31 2611.23 2602.79 2595.79 2595.54 2600.04 2604.97 2611.72 2625.03 2644.06 2659.97 2663.10 2643.65 2628.06 2621.92 2619.25 2623.39 2621.25 2612.05 2605.73 2607.01 2608.47 2609.51 2608.42 2604.00 2602.91 2611.18 2623.73 2635.49 2646.62 2652.39 2655.88 2658.69 2652.32 2636.94 2625.67 2622.54 2617.85 2607.86 2599.30 2596.82 2598.27 2598.18 2597.47 2598.56 2599.49 2599.95 2599.22 2598.56 2602.58
2838.22 2843.18 2848.20 2853.97 2859.61 2862.13 2863.93 2865.92 2867.37 2868.41 2869.77 2871.54 2873.10 2873.85 2873.90 2874.16 2875.46 2878.04 2880.82 2881.48 2864.08 2835.46 2815.16 2801.15 2795.28 2789.88 2785.13 2779.96 2772.67 2765.09 2757.89 2750.11 2742.56 2735.17 2731.92 2731.73 2731.55 2730.87 2730.20 2729.64 2728.98 2728.00 2726.96 2725.94 2724.80 2723.65 2722.41 2716.83 2705.84 2694.84 2684.29 2672.36 2658.46 2650.86 2642.46 2639.14 2642.19 2643.70 2642.22 2638.36 2638.11 2647.61 2667.06 2682.41 2688.78 2695.85 2708.22 2732.29 2751.95 2769.14 2792.29 2812.99 2823.58 2833.40 2845.60 2860.33 2889.08 2918.67 2921.13 2895.74 2868.46 2861.39 2859.31 2852.53 2845.38 2833.06 2813.62 2795.32 2779.60 2762.37 2742.12 2727.39 2714.79 2702.20 2693.19 2685.57 2677.62 2667.59 2655.42 2646.52 2642.20 2639.92 2633.81 2629.06 2633.09 2639.58 2642.26 2637.59 2623.97 2610.05 2608.60 2613.45 2620.62 2629.09 2643.76 2665.97 2686.22 2688.18 2669.03 2647.17 2635.21 2629.89 2629.56 2627.24 2621.73 2617.00 2616.67 2617.58 2618.16 2617.30 2614.25 2614.66 2621.83 2636.89 2653.68 2668.90 2681.39 2687.39 2686.09 2677.57 2665.16 2659.02 2656.81 2650.36 2639.67 2630.34 2623.33 2616.40 2607.93 2601.52 2599.67 2600.83 2602.30 2600.67 2597.92 2601.12
2839.83 2844.69 2849.06 2855.44 2860.11 2862.34 2864.23 2864.20 2864.18 2864.74 2866.20 2868.75 2871.27 2871.89 2871.59 2871.92 2873.47 2876.24 2879.63 2881.19 2866.30 2836.54 2813.98 2799.67 2793.90 2787.66 2782.00 2777.46 2771.69 2765.32 2758.33 2749.55 2740.97 2733.86 2731.74 2731.73 2731.66 2731.13 2730.26 2729.67 2729.13 2728.27 2727.42 2726.50 2725.43 2724.48 2723.70 2722.71 2720.59 2714.85 2705.77 2693.63 2677.88 2670.63 2661.07 2656.85 2660.40 2661.16 2654.85 2646.45 2642.96 2656.78 2678.33 2686.13 2690.48 2695.87 2705.99 2730.66 2749.01 2763.77 2791.43 2825.66 2853.59 2872.64 2889.56 2910.44 2925.79 2940.92 2936.75 2910.08 2889.60 2886.82 2890.94 2889.74 2874.73 2853.21 2832.30 2813.45 2796.69 2777.54 2759.34 2747.69 2735.77 2725.47 2716.45 2705.94 2694.56 2681.75 2669.67 2661.23 2657.68 2653.99 2645.96 2640.05 2645.91 2656.28 2661.58 2659.59 2645.72 2625.92 2621.59 2625.18 2635.06 2647.27 2664.15 2688.97 2713.71 2713.97 2693.53 2670.81 2654.24 2645.53 2641.57 2637.82 2632.97 2628.65 2628.11 2628.37 2629.05 2629.53 2627.02 2627.75 2635.72 2649.34 2671.04 2691.25 2711.18 2718.86 2712.15 2702.02 2692.77 2687.22 2683.15 2676.18 2667.23 2657.60 2648.08 2637.18 2620.74 2608.51 2602.51 2602.36 2601.87 2599.82 2598.02 2599.77
2838.93 2843.18 2849.05 2856.51 2861.77 2863.76 2863.25 2861.65 2861.26 2861.99 2864.00 2867.08 2869.28 2870.13 2869.70 2869.09 2869.45 2871.37 2875.50 2879.50 2863.13 2832.96 2811.50 2798.75 2793.15 2787.17 2781.55 2776.37 2770.92 2765.60 2759.22 2750.20 2742.36 2735.22 2731.83 2731.72 2731.59 2731.33 2730.66 2729.87 2729.19 2728.40 2727.78 2727.04 2726.14 2725.50 2724.94 2724.10 2723.27 2722.69 2718.56 2706.69 2698.90 2692.54 2681.50 2679.41 2682.64 2679.42 2667.25 2656.31 2653.00 2665.18 2682.59 2688.61 2692.04 2695.89 2702.98 2726.01 2746.28 2759.74 2786.28 2821.40 2854.06 2887.18 2918.20 2939.74 2951.33 2958.13 2953.29 2932.92 2920.10 2919.62 2925.41 2919.05 2897.60 2875.44 2852.38 2830.55 2811.05 2792.95 2779.39 2768.38 2757.75 2748.57 2738.57 2727.29 2714.47 2701.40 2690.45 2680.52 2675.31 2669.22 2660.12 2651.99 2655.50 2665.05 2669.20 2668.10 2658.31 2642.73 2641.44 2642.89 2651.73 2668.45 2688.40 2715.45 2739.62 2739.62 2719.39 2696.63 2677.68 2666.08 2659.40 2653.03 2647.01 2644.56 2643.28 2640.26 2641.10 2644.86 2644.22 2645.11 2655.39 2666.96 2687.99 2714.38 2736.53 2744.78 2737.55 2727.50 2719.70 2713.62 2708.03 2701.45 2693.20 2684.14 2672.54 2654.38 2629.56 2614.27 2606.28 2604.16 2601.29 2600.04 2599.68 2599.69
2839.29 2845.14 2854.69 2857.21 2860.83 2862.99 2862.34 2860.48 2859.42 2861.08 2863.70 2866.36 2867.92 2868.54 2868.42 2867.06 2864.87 2864.78 2867.08 2867.97 2849.71 2827.51 2808.56 2798.09 2792.90 2787.89 2783.01 2776.77 2769.84 2764.20 2758.12 2750.55 2744.41 2736.13 2731.81 2731.72 2731.59 2731.47 2731.03 2730.31 2729.48 2728.60 2728.02 2727.43 2726.97 2726.47 2725.86 2724.89 2723.77 2722.41 2717.11 2710.17 2706.79 2704.09 2699.95 2700.24 2700.23 2692.42 2676.62 2666.10 2661.95 2673.33 2687.72 2692.85 2695.04 2697.21 2701.02 2716.43 2741.23 2755.71 2778.09 2809.64 2840.74 2871.59 2912.09 2943.12 2958.99 2968.22 2969.85 2959.31 2952.27 2953.30 2960.18 2947.61 2921.67 2897.08 2871.44 2847.90 2830.36 2818.58 2805.62 2791.26 2779.35 2769.40 2759.74 2748.42 2735.48 2722.97 2711.97 2702.30 2694.37 2686.05 2675.64 2664.61 2662.69 2671.61 2676.74 2675.53 2668.76 2661.95 2665.76 2669.02 2675.29 2691.75 2714.48 2740.95 2761.53 2763.57 2743.06 2719.27 2697.92 2685.53 2678.61 2670.98 2664.22 2661.65 2659.06 2654.24 2655.23 2662.14 2665.33 2668.00 2682.32 2694.67 2710.57 2736.49 2758.94 2768.74 2763.31 2755.96 2749.73 2742.96 2735.85 2728.48 2719.05 2705.71 2686.19 2658.82 2630.39 2616.13 2610.12 2605.67 2603.37 2602.59 2602.48 2603.06
2843.12 2850.68 2858.86 2857.64 2858.02 2860.71 2861.88 2861.33 2859.52 2860.87 2863.43 2865.29 2866.27 2866.68 2866.86 2865.88 2862.30 2858.42 2858.12 2855.93 2840.09 2823.93 2807.95 2798.25 2792.84 2787.86 2782.87 2775.76 2767.87 2761.29 2755.13 2748.95 2743.28 2735.03 2731.74 2731.73 2731.73 2731.69 2731.35 2730.75 2730.01 2729.06 2728.49 2728.00 2727.56 2727.09 2726.50 2725.25 2723.77 2721.25 2714.02 2711.44 2709.98 2708.77 2709.15 2709.73 2707.83 2700.29 2685.54 2676.18 2673.41 2685.32 2698.40 2700.13 2699.75 2701.30 2704.23 2716.20 2736.43 2751.00 2767.03 2793.73 2824.11 2855.02 2893.24 2932.22 2957.60 2973.61 2982.35 2983.15 2983.68 2988.23 2992.50 2973.18 2944.64 2917.08 2887.52 2865.98 2854.55 2846.54 2834.63 2817.65 2802.38 2790.73 2781.10 2771.70 2760.26 2747.28 2735.03 2724.39 2714.57 2705.26 2695.02 2685.11 2682.94 2684.31 2687.45 2686.55 2683.38 2683.82 2692.11 2697.51 2703.70 2719.82 2742.37 2765.74 2785.51 2788.57 2766.49 2740.35 2717.82 2703.78 2696.52 2688.82 2683.00 2680.03 2677.05 2671.37 2673.46 2685.40 2693.33 2698.08 2711.99 2725.50 2738.49 2759.41 2783.39 2794.97 2792.21 2787.19 2781.78 2775.01 2766.26 2754.42 2734.55 2707.49 2678.50 2649.37 2623.90 2614.78 2611.99 2609.97 2609.31 2608.68 2608.64 2609.57
2843.65 2848.26 2850.75 2851.03 2854.14 2857.69 2860.76 2861.68 2860.05 2860.08 2862.39 2863.81 2864.41 2864.73 2864.59 2863.70 2858.40 2849.30 2848.32 2844.39 2832.72 2819.67 2807.44 2798.68 2792.58 2786.60 2781.60 2773.98 2764.85 2758.65 2751.84 2745.40 2738.62 2732.65 2731.73 2731.73 2731.73 2731.72 2731.63 2731.26 2730.54 2729.71 2729.08 2728.70 2728.16 2727.65 2727.08 2725.33 2723.82 2721.91 2715.20 2711.67 2711.66 2713.50 2716.62 2718.50 2715.59 2707.95 2699.39 2690.37 2686.62 2696.92 2706.61 2707.02 2705.41 2706.59 2711.55 2721.19 2733.76 2746.95 2758.85 2779.26 2807.57 2840.55 2879.71 2921.54 2952.66 2974.48 2987.46 2994.97 3002.03 3010.41 3013.94 2994.25 2962.44 2936.89 2911.20 2891.87 2883.40 2871.75 2857.97 2842.31 2827.44 2815.43 2805.07 2795.53 2785.30 2773.00 2759.61 2746.48 2735.95 2727.08 2719.29 2716.89 2714.08 2705.98 2701.67 2700.54 2699.95 2710.06 2722.09 2726.64 2734.13 2749.39 2769.67 2791.98 2812.16 2813.75 2790.39 2759.81 2737.76 2722.98 2715.36 2708.08 2703.17 2700.47 2699.25 2696.57 2699.29 2711.38 2723.15 2730.35 2741.14 2754.63 2769.23 2790.05 2812.08 2822.81 2819.75 2816.17 2813.76 2808.32 2791.90 2764.46 2730.42 2695.43 2664.29 2635.23 2617.88 2616.20 2615.67 2615.60 2616.18 2616.72 2616.55 2616.28
2839.12 2842.00 2842.93 2845.79 2850.24 2854.49 2857.63 2858.59 2857.92 2857.81 2860.01 2861.30 2861.87 2862.24 2861.50 2857.33 2846.63 2837.20 2838.41 2840.21 2828.23 2816.18 2805.71 2798.44 2792.67 2785.08 2779.87 2773.61 2764.96 2757.96 2749.68 2740.94 2733.72 2731.77 2731.73 2731.73 2731.73 2731.72 2731.70 2731.61 2731.13 2730.45 2730.04 2729.62 2728.98 2728.60 2728.09 2725.77 2723.92 2721.20 2713.86 2711.62 2713.68 2719.85 2721.84 2722.77 2721.80 2717.88 2713.78 2708.83 2707.58 2712.75 2716.69 2713.77 2710.54 2710.87 2715.97 2723.38 2733.18 2744.67 2754.75 2770.45 2799.36 2830.71 2869.12 2910.97 2949.15 2976.66 2991.04 3000.84 3008.87 3018.54 3025.89 3012.06 2981.16 2954.31 2937.42 2924.05 2916.55 2898.46 2878.75 2863.25 2850.24 2839.75 2830.22 2822.30 2814.24 2803.24 2786.73 2768.53 2754.32 2746.42 2744.03 2748.55 2741.50 2726.91 2717.18 2716.08 2725.02 2743.63 2755.00 2756.71 2763.13 2778.41 2797.99 2819.51 2834.82 2833.45 2808.45 2776.18 2754.52 2742.02 2735.02 2728.88 2725.17 2724.05 2723.87 2725.16 2733.04 2742.74 2752.23 2762.43 2773.11 2787.19 2801.61 2822.33 2841.74 2849.71 2846.39 2842.84 2839.78 2829.44 2797.86 2759.88 2720.04 2684.33 2652.78 2627.38 2619.14 2619.63 2619.64 2620.18 2621.50 2623.17 2623.23 2622.30
2832.18 2835.55 2838.62 2843.12 2847.81 2852.00 2854.36 2854.82 2854.82 2853.94 2852.71 2852.01 2851.62 2852.33 2849.69 2842.08 2834.52 2831.93 2832.65 2834.85 2824.86 2816.00 2806.68 2799.70 2794.43 2787.73 2782.85 2776.22 2767.20 2758.11 2748.58 2738.81 2732.12 2731.73 2731.73 2731.73 2731.73 2731.73 2731.73 2731.71 2731.51 2731.09 2731.22 2731.79 2731.45 2730.50 2730.41 2727.86 2724.25 2718.95 2712.03 2711.68 2717.23 2723.58 2723.83 2724.48 2724.57 2723.21 2722.16 2721.15 2721.46 2722.45 2722.15 2718.94 2714.76 2714.22 2718.28 2724.08 2732.54 2742.27 2752.32 2767.13 2797.58 2829.15 2864.39 2906.62 2947.94 2979.28 2994.72 3004.45 3012.07 3021.71 3036.40 3030.29 3004.21 2976.73 2962.91 2955.43 2948.47 2926.82 2902.40 2883.38 2869.63 2860.08 2853.16 2848.81 2845.44 2839.81 2821.22 2793.71 2770.93 2760.53 2757.90 2760.06 2754.42 2741.88 2733.57 2735.89 2754.16 2776.40 2787.40 2786.38 2789.32 2803.05 2822.28 2841.73 2854.89 2851.03 2825.53 2796.08 2773.12 2762.18 2756.14 2751.97 2749.16 2747.55 2747.29 2752.03 2766.01 2778.56 2784.11 2793.65 2808.23 2820.64 2836.32 2853.73 2871.17 2876.66 2872.44 2863.67 2847.25 2823.87 2788.88 2748.90 2709.17 2677.38 2648.09 2629.12 2623.96 2625.46 2625.90 2626.44 2627.12 2628.24 2628.48 2628.93
2827.08 2830.18 2836.90 2843.75 2847.38 2850.60 2853.53 2854.40 2854.38 2851.76 2847.63 2843.88 2838.03 2836.76 2835.08 2832.54 2831.73 2831.70 2831.72 2829.19 2823.75 2819.79 2812.17 2804.03 2797.37 2791.49 2786.36 2780.05 2769.20 2757.37 2746.53 2736.26 2731.84 2731.73 2731.73 2731.73 2731.73 2731.73 2731.73 2731.73 2731.70 2731.58 2732.21 2734.17 2735.67 2735.58 2736.26 2733.54 2725.29 2716.67 2711.73 2711.73 2718.33 2725.15 2725.37 2725.67 2725.62 2724.84 2724.21 2724.02 2724.32 2724.31 2723.59 2721.76 2718.24 2716.41 2719.23 2724.71 2732.04 2740.16 2750.53 2766.22 2797.84 2835.11 2878.48 2918.60 2951.57 2980.12 2996.88 3006.45 3013.41 3022.55 3038.42 3043.75 3029.31 3009.01 2997.61 2991.53 2980.63 2953.51 2925.92 2905.85 2891.55 2882.04 2874.92 2872.90 2874.33 2871.07 2852.02 2822.04 2794.65 2780.36 2775.71 2775.02 2766.72 2757.04 2753.84 2760.13 2782.64 2807.79 2820.64 2816.14 2815.23 2825.45 2843.43 2859.58 2865.24 2862.94 2846.67 2820.35 2798.26 2786.20 2781.24 2779.48 2778.14 2776.96 2776.07 2781.89 2801.14 2817.60 2824.03 2827.29 2841.54 2855.35 2872.48 2891.64 2901.77 2901.90 2894.34 2873.56 2840.30 2804.26 2770.39 2734.59 2700.13 2672.31 2649.26 2636.68 2634.49 2634.70 2634.51 2635.04 2634.88 2634.01 2633.58 2635.13
2822.16 2823.64 2834.12 2845.65 2852.78 2854.50 2856.12 2856.26 2855.07 2852.96 2847.58 2841.36 2833.30 2831.73 2831.71 2831.70 2831.71 2831.74 2833.49 2837.60 2833.42 2826.05 2817.94 2808.41 2800.08 2794.80 2789.35 2783.25 2770.98 2755.75 2741.86 2733.14 2731.74 2731.73 2731.73 2731.73 2731.73 2731.73 2731.73 2731.73 2731.77 2732.80 2735.18 2737.35 2738.42 2739.76 2741.28 2737.62 2726.71 2715.11 2711.61 2711.67 2717.47 2724.51 2726.02 2726.59 2726.54 2726.09 2725.91 2726.18 2726.65 2726.64 2725.77 2723.95 2720.83 2718.17 2720.24 2725.38 2732.00 2739.26 2749.33 2765.49 2798.62 2841.65 2889.29 2925.18 2951.70 2976.73 2996.05 3006.78 3013.60 3021.89 3035.39 3045.14 3045.53 3037.20 3029.27 3020.46 3002.57 2975.24 2948.18 2930.23 2919.09 2910.03 2902.67 2901.85 2904.40 2898.19 2874.37 2848.90 2823.56 2804.36 2795.58 2787.98 2777.92 2775.85 2778.20 2787.91 2812.65 2837.75 2849.64 2845.48 2842.65 2849.72 2862.18 2867.75 2869.36 2868.31 2863.72 2849.43 2829.60 2817.23 2812.65 2812.50 2811.93 2811.83 2812.29 2814.68 2828.01 2848.08 2859.64 2862.63 2877.32 2894.95 2911.81 2925.78 2928.44 2924.60 2908.57 2875.58 2836.59 2797.73 2764.00 2729.11 2695.85 2670.47 2652.53 2642.81 2643.03 2642.48 2641.97 2642.52 2641.44 2639.11 2637.26 2638.86
2825.48 2826.72 2835.68 2850.22 2861.10 2862.42 2859.52 2859.11 2857.85 2855.81 2850.50 2842.83 2835.25 2832.23 2831.78 2831.81 2832.47 2833.71 2838.11 2844.08 2839.50 2830.19 2821.68 2814.21 2805.93 2799.92 2791.40 2781.99 2767.39 2750.20 2735.44 2731.78 2731.73 2731.73 2731.73 2731.73 2731.73 2731.73 2731.76 2732.05 2732.85 2735.82 2739.14 2739.98 2739.77 2741.18 2742.44 2737.55 2727.38 2715.17 2711.61 2711.69 2716.51 2722.92 2725.54 2726.83 2727.07 2727.07 2727.69 2728.57 2729.43 2729.97 2729.18 2726.32 2722.40 2719.50 2720.90 2726.26 2732.61 2739.12 2748.74 2764.85 2797.52 2837.11 2880.91 2917.53 2943.45 2967.84 2992.05 3005.88 3012.86 3020.62 3031.75 3042.04 3048.35 3053.00 3051.93 3041.89 3021.76 2995.16 2971.44 2955.25 2944.26 2936.12 2931.44 2929.93 2928.79 2921.34 2899.79 2874.67 2848.88 2826.50 2813.33 2800.62 2793.21 2794.54 2803.26 2817.46 2843.58 2867.28 2873.95 2871.04 2869.59 2872.74 2875.61 2874.83 2873.74 2873.54 2875.71 2875.50 2863.10 2852.48 2849.48 2848.26 2846.79 2846.45 2848.06 2851.83 2859.67 2878.14 2897.98 2904.54 2916.82 2938.14 2950.28 2951.07 2947.54 2940.11 2916.88 2880.84 2842.10 2804.61 2768.78 2732.89 2697.75 2671.99 2656.97 2649.62 2648.07 2647.45 2647.19 2647.57 2646.52 2643.18 2640.11 2643.38
2839.05 2840.99 2846.48 2860.76 2871.44 2869.82 2864.04 2866.18 2867.11 2865.25 2862.16 2857.57 2847.37 2838.56 2835.01 2834.38 2836.07 2838.78 2845.50 2851.59 2841.67 2833.98 2829.52 2823.09 2813.68 2804.75 2791.40 2776.94 2761.39 2745.50 2733.69 2731.73 2731.73 2731.73 2731.73 2731.73 2731.74 2732.02 2733.35 2736.07 2738.97 2741.36 2743.61 2743.31 2741.78 2743.40 2743.33 2736.55 2726.78 2714.92 2711.61 2711.68 2713.96 2717.56 2723.05 2725.48 2726.85 2727.72 2728.73 2729.92 2731.23 2732.19 2731.67 2728.18 2723.61 2720.43 2721.49 2727.15 2733.92 2740.93 2749.62 2764.47 2794.26 2827.78 2865.91 2902.46 2930.26 2954.47 2982.79 3003.03 3011.12 3018.91 3028.25 3037.66 3045.49 3054.73 3060.96 3054.95 3039.26 3017.82 2997.88 2983.06 2969.57 2960.70 2955.67 2953.23 2950.90 2945.56 2931.16 2903.05 2872.34 2848.67 2832.51 2820.33 2815.62 2817.99 2831.95 2850.25 2875.08 2898.80 2899.08 2894.03 2891.62 2890.15 2886.13 2881.06 2878.59 2877.82 2882.20 2889.74 2890.97 2887.50 2886.34 2885.27 2883.79 2883.06 2884.66 2889.53 2899.36 2917.72 2940.23 2949.88 2958.40 2974.49 2981.78 2976.12 2966.18 2947.69 2921.95 2888.65 2849.95 2813.84 2773.49 2734.29 2699.19 2673.81 2660.24 2655.71 2653.74 2652.40 2651.44 2653.62 2655.84 2650.17 2645.12 2650.97
2854.77 2858.44 2864.06 2875.58 2883.61 2878.73 2878.65 2882.36 2881.98 2881.24 2881.28 2878.26 2867.99 2855.74 2845.70 2840.98 2841.38 2845.38 2855.71 2862.28 2848.23 2839.61 2841.15 2834.24 2820.63 2808.27 2791.56 2775.50 2762.50 2749.66 2737.55 2732.48 2731.75 2731.73 2731.73 2731.80 2732.46 2734.86 2737.79 2741.47 2744.75 2746.75 2748.63 2749.56 2749.91 2750.68 2746.04 2736.98 2726.62 2714.93 2711.78 2711.64 2711.88 2713.56 2721.54 2725.06 2727.30 2728.43 2729.24 2730.56 2732.06 2732.63 2732.44 2729.75 2725.09 2721.38 2722.00 2728.16 2735.44 2743.61 2751.71 2763.86 2789.88 2819.59 2853.55 2886.25 2914.90 2939.10 2966.24 2994.37 3007.84 3016.15 3025.03 3033.27 3040.87 3049.15 3056.34 3057.39 3050.68 3038.48 3024.24 3011.49 2998.47 2988.41 2982.21 2979.91 2977.72 2972.31 2958.25 2926.77 2892.41 2868.93 2850.86 2840.76 2840.68 2847.24 2861.99 2883.23 2909.87 2929.99 2926.36 2916.88 2910.81 2904.04 2894.83 2888.60 2884.88 2883.56 2890.26 2900.79 2909.83 2909.99 2907.57 2907.66 2909.28 2913.55 2918.28 2924.73 2938.84 2959.99 2978.54 2992.35 3001.75 3008.71 3006.11 2993.41 2970.41 2936.24 2901.56 2873.26 2839.38 2803.66 2765.52 2728.83 2697.18 2675.57 2663.90 2659.52 2659.40 2657.38 2654.83 2655.65 2660.65 2656.79 2653.70 2658.67
2872.48 2878.72 2885.16 2893.98 2896.61 2888.79 2893.15 2900.66 2902.84 2904.07 2904.47 2901.59 2892.74 2878.36 2861.54 2851.19 2849.99 2853.31 2863.98 2872.78 2859.12 2850.25 2852.74 2847.02 2834.67 2818.84 2797.62 2779.56 2769.52 2759.67 2748.40 2737.41 2733.57 2731.85 2731.92 2733.62 2736.52 2740.06 2742.87 2745.33 2748.66 2751.24 2754.14 2757.91 2761.87 2760.18 2750.55 2739.61 2729.45 2719.22 2714.62 2712.99 2712.02 2713.60 2721.64 2726.41 2728.79 2729.40 2729.78 2730.96 2732.35 2732.64 2732.61 2731.26 2727.21 2722.90 2722.38 2728.78 2736.97 2744.78 2752.32 2763.16 2785.60 2811.12 2841.40 2868.75 2896.78 2922.81 2947.85 2975.47 2999.37 3011.60 3021.62 3029.30 3036.06 3042.96 3049.75 3056.39 3059.31 3056.50 3047.14 3034.69 3023.09 3013.31 3006.99 3004.25 3002.38 2999.21 2984.22 2949.39 2915.58 2887.83 2870.27 2863.54 2867.19 2879.21 2898.37 2914.94 2942.48 2960.58 2950.52 2936.93 2926.99 2916.08 2902.78 2895.65 2893.37 2894.97 2901.74 2912.47 2921.13 2918.78 2916.59 2918.40 2924.32 2933.80 2942.68 2954.13 2971.96 2992.34 3008.68 3023.08 3032.31 3032.11 3017.39 2992.16 2955.86 2916.77 2877.29 2846.80 2812.89 2780.89 2750.01 2719.64 2692.04 2676.18 2667.62 2663.09 2663.45 2660.83 2657.66 2656.67 2658.80 2658.26 2659.84 2667.49
2893.38 2902.92 2909.16 2914.50 2908.20 2899.29 2905.86 2919.01 2925.84 2927.51 2925.01 2920.78 2913.01 2898.82 2876.62 2861.59 2859.17 2860.72 2872.97 2882.74 2870.27 2864.75 2866.30 2862.34 2851.42 2832.47 2809.43 2793.88 2780.67 2770.43 2761.99 2755.43 2744.62 2733.34 2733.84 2738.00 2742.27 2745.44 2748.35 2750.69 2752.93 2755.21 2758.73 2766.35 2775.07 2770.44 2756.60 2744.83 2733.99 2723.80 2719.96 2719.12 2716.98 2716.32 2722.81 2729.60 2730.98 2730.63 2730.64 2731.33 2732.42 2732.64 2732.64 2732.38 2730.09 2725.89 2724.01 2729.83 2737.35 2743.49 2751.48 2762.27 2782.10 2802.49 2827.66 2851.12 2875.09 2901.78 2929.05 2953.80 2979.96 3002.90 3015.81 3024.70 3031.06 3037.34 3044.18 3053.25 3062.28 3067.23 3066.50 3057.63 3046.99 3037.49 3030.68 3026.44 3024.23 3020.96 3009.10 2975.60 2940.00 2911.79 2896.31 2892.04 2895.67 2907.92 2930.97 2949.89 2974.13 2986.87 2970.78 2952.96 2939.60 2927.65 2914.04 2903.69 2901.67 2905.77 2913.12 2921.62 2925.98 2925.20 2926.39 2930.79 2940.05 2951.39 2963.41 2979.26 2998.59 3017.25 3034.42 3050.93 3060.47 3047.47 3018.79 2983.18 2943.14 2899.40 2859.60 2826.89 2794.27 2765.08 2738.42 2711.32 2688.70 2677.43 2671.76 2668.09 2666.77 2663.38 2660.60 2659.55 2658.48 2660.88 2669.13 2682.92
2919.16 2929.78 2934.34 2934.17 2919.62 2913.37 2923.12 2937.36 2946.56 2947.56 2943.55 2939.13 2929.87 2914.35 2890.09 2874.51 2870.02 2871.72 2884.17 2896.39 2887.05 2882.19 2881.75 2878.18 2865.04 2846.17 2829.29 2815.21 2797.59 2784.36 2779.08 2776.71 2761.00 2742.92 2739.14 2741.40 2746.48 2750.86 2754.40 2756.68 2757.73 2759.35 2765.29 2779.53 2790.47 2782.75 2764.94 2751.24 2739.75 2731.25 2727.29 2726.07 2723.98 2722.34 2728.46 2732.36 2732.42 2732.00 2731.99 2732.25 2732.59 2732.64 2732.64 2732.64 2732.28 2730.98 2730.56 2733.04 2737.34 2741.81 2749.87 2760.57 2778.04 2794.58 2813.11 2834.49 2854.73 2878.48 2905.30 2933.53 2957.25 2984.36 3006.04 3017.66 3025.31 3031.66 3038.52 3047.68 3058.37 3066.48 3074.20 3077.94 3074.99 3068.41 3063.21 3056.88 3050.00 3041.69 3028.50 3002.59 2972.61 2946.58 2929.71 2926.07 2927.23 2938.67 2957.78 2984.30 3002.62 3001.08 2983.77 2965.58 2949.98 2935.91 2923.93 2915.42 2914.49 2918.39 2923.31 2927.88 2931.19 2933.93 2937.82 2944.28 2955.79 2969.32 2984.69 3002.97 3022.11 3040.35 3058.47 3075.44 3078.88 3048.91 3011.70 2968.52 2929.11 2884.89 2848.57 2813.77 2780.77 2753.29 2730.93 2708.34 2690.80 2680.69 2675.81 2672.69 2670.20 2666.76 2664.40 2661.65 2661.29 2670.11 2686.17 2703.03
2951.07 2961.67 2957.78 2946.43 2931.25 2932.42 2944.66 2959.08 2969.15 2966.37 2961.13 2955.01 2943.12 2922.25 2900.06 2889.35 2882.68 2885.05 2898.00 2911.56 2909.97 2904.19 2901.34 2895.44 2879.75 2861.06 2846.05 2829.77 2816.22 2807.72 2801.83 2801.04 2784.27 2760.91 2751.11 2750.08 2752.35 2755.93 2760.57 2763.52 2764.67 2767.91 2777.90 2795.46 2801.95 2790.94 2774.23 2759.50 2746.76 2738.34 2735.36 2732.95 2730.55 2730.23 2732.39 2732.64 2732.64 2732.63 2732.63 2732.64 2732.64 2732.64 2732.64 2732.64 2732.65 2732.79 2733.33 2734.85 2737.54 2741.33 2748.52 2758.24 2772.06 2787.01 2800.51 2817.52 2836.13 2857.09 2882.10 2910.93 2937.58 2961.04 2988.82 3007.93 3017.79 3025.38 3032.68 3041.30 3051.42 3061.42 3071.44 3081.04 3088.23 3092.62 3095.03 3090.76 3075.34 3058.16 3042.52 3026.21 3007.02 2987.05 2968.75 2967.33 2964.97 2976.57 2993.98 3015.47 3023.04 3008.50 2989.84 2971.85 2955.23 2940.17 2930.27 2925.67 2927.30 2931.27 2934.70 2935.32 2936.64 2940.86 2949.00 2959.34 2974.27 2989.80 3006.33 3024.34 3043.64 3063.86 3084.23 3098.76 3083.38 3043.82 3004.02 2956.20 2911.54 2871.52 2842.70 2809.84 2774.26 2746.50 2725.43 2707.60 2693.78 2683.61 2678.58 2676.59 2675.04 2673.00 2669.89 2667.45 2672.75 2688.70 2708.21 2720.72
2997.44 3000.67 2977.77 2955.85 2944.61 2952.63 2966.37 2982.40 2992.90 2987.25 2979.56 2971.96 2956.27 2930.79 2915.60 2907.80 2899.79 2902.03 2913.66 2927.26 2929.25 2924.00 2917.83 2908.57 2891.26 2871.71 2854.81 2840.96 2833.38 2825.38 2820.23 2818.45 2801.59 2777.70 2765.89 2761.16 2759.90 2760.79 2765.90 2771.21 2774.66 2780.21 2793.51 2805.12 2802.79 2793.41 2781.44 2769.49 2757.70 2747.07 2742.54 2739.47 2736.69 2735.11 2733.69 2732.70 2732.64 2732.64 2732.64 2732.64 2732.64 2732.64 2732.64 2732.64 2732.65 2732.77 2733.07 2734.45 2737.21 2740.99 2747.16 2755.40 2765.23 2778.15 2790.07 2803.16 2818.32 2836.54 2859.23 2886.58 2915.90 2941.25 2965.40 2992.61 3008.81 3017.78 3025.86 3034.87 3044.86 3055.17 3065.46 3075.85 3086.31 3097.42 3104.49 3105.55 3093.97 3071.62 3052.75 3039.94 3030.82 3018.70 3011.87 3019.15 3014.76 3028.93 3041.17 3047.08 3036.91 3015.51 2995.00 2974.57 2956.79 2943.74 2936.98 2934.82 2938.15 2944.16 2946.48 2943.65 2944.81 2951.68 2963.42 2978.49 2994.50 3009.00 3025.66 3045.91 3067.36 3089.68 3105.83 3096.21 3066.42 3033.05 3000.25 2955.54 2901.51 2858.85 2831.18 2802.46 2769.95 2744.31 2724.98 2710.65 2699.93 2691.99 2685.96 2682.67 2680.79 2679.50 2676.95 2678.48 2689.75 2712.20 2730.98 2733.18
3043.73 3035.14 2998.24 2970.47 2962.84 2974.22 2989.34 3006.23 3020.01 3018.48 3002.81 2991.56 2974.58 2948.10 2938.72 2931.99 2926.10 2928.73 2934.41 2945.18 2946.82 2940.63 2930.22 2916.43 2899.45 2878.81 2862.35 2853.40 2846.46 2838.82 2835.14 2831.79 2816.13 2791.72 2777.11 2771.31 2768.73 2768.85 2773.05 2779.54 2786.02 2794.47 2805.55 2806.64 2799.90 2793.03 2785.86 2777.58 2767.30 2757.30 2748.86 2743.80 2740.36 2737.77 2735.17 2733.35 2732.98 2732.67 2732.64 2732.64 2732.64 2732.64 2732.64 2732.64 2732.65 2732.73 2732.92 2733.68 2736.04 2739.86 2745.20 2752.11 2759.41 2768.39 2778.47 2789.31 2802.67 2817.57 2837.00 2860.60 2888.90 2918.47 2944.28 2969.32 2994.97 3009.47 3018.46 3027.78 3038.12 3048.50 3058.75 3069.29 3080.86 3091.46 3098.65 3101.29 3096.02 3080.05 3062.77 3053.95 3050.08 3042.49 3046.24 3066.67 3063.12 3081.68 3090.13 3075.57 3047.85 3022.15 3001.05 2980.07 2961.10 2950.33 2944.52 2941.48 2948.89 2960.65 2963.13 2960.17 2960.59 2966.71 2980.47 2996.48 3010.87 3026.28 3046.42 3068.70 3091.26 3103.45 3099.70 3077.80 3042.86 3004.67 2961.39 2919.98 2877.17 2843.92 2817.16 2792.87 2771.29 2752.99 2738.16 2724.23 2713.52 2706.68 2700.58 2695.19 2691.03 2687.65 2686.16 2692.12 2711.65 2737.06 2746.80 2738.14
3044.37 3044.02 3022.75 2991.24 2981.20 2993.17 3009.56 3026.67 3050.53 3068.21 3034.92 3010.07 2994.13 2976.69 2969.03 2960.43 2953.50 2955.24 2957.06 2964.81 2965.44 2957.60 2942.06 2924.38 2908.85 2891.55 2875.42 2864.84 2855.35 2849.42 2847.51 2846.00 2837.42 2816.93 2795.36 2785.28 2778.73 2777.82 2781.93 2790.50 2801.10 2810.71 2814.80 2807.40 2796.21 2788.69 2785.98 2781.15 2770.74 2760.70 2752.58 2746.34 2742.89 2740.14 2737.56 2735.23 2733.95 2732.81 2732.64 2732.64 2732.64 2732.64 2732.64 2732.64 2732.65 2732.70 2732.83 2732.96 2734.15 2737.69 2742.67 2748.59 2754.55 2760.23 2767.57 2776.64 2788.09 2801.17 2817.70 2838.25 2861.92 2890.51 2919.69 2945.80 2970.55 2996.01 3010.96 3020.48 3030.65 3041.12 3051.13 3060.82 3071.64 3082.06 3089.23 3093.91 3095.03 3089.28 3078.52 3070.80 3067.85 3065.33 3070.39 3091.83 3101.67 3116.59 3123.37 3103.69 3062.79 3029.55 3007.57 2987.93 2968.14 2957.70 2956.02 2954.29 2964.56 2982.20 2985.85 2983.31 2980.99 2982.83 2995.51 3010.59 3025.96 3045.46 3067.06 3089.87 3100.25 3088.98 3072.50 3055.84 3025.62 2977.43 2926.48 2888.70 2856.38 2827.52 2806.09 2792.04 2779.31 2767.07 2755.32 2742.37 2729.69 2720.32 2713.15 2707.38 2701.75 2699.16 2701.89 2713.25 2738.22 2757.61 2754.55 2739.57
3035.23 3037.91 3031.11 3011.87 3001.95 3011.09 3032.62 3060.50 3086.70 3102.72 3079.15 3033.10 3012.49 3001.63 2997.92 2988.99 2976.74 2973.10 2973.74 2980.40 2985.10 2976.58 2957.71 2936.66 2921.82 2909.63 2890.92 2874.81 2863.80 2859.04 2858.51 2858.90 2857.82 2839.25 2822.20 2812.29 2794.79 2790.20 2796.35 2806.11 2818.78 2824.26 2818.58 2805.59 2788.57 2777.79 2777.42 2775.85 2768.54 2760.59 2753.86 2747.96 2744.70 2742.09 2739.45 2736.75 2734.31 2732.81 2732.64 2732.64 2732.64 2732.64 2732.64 2732.64 2732.65 2732.69 2732.77 2732.81 2733.00 2734.90 2739.59 2744.94 2749.88 2754.49 2759.52 2766.71 2776.53 2788.03 2801.35 2819.75 2840.27 2864.23 2891.99 2920.03 2945.80 2973.20 3001.53 3014.06 3023.29 3033.23 3043.35 3052.64 3061.78 3071.97 3080.31 3086.09 3092.16 3098.74 3096.65 3087.30 3082.69 3082.52 3088.29 3101.44 3114.88 3124.16 3127.41 3121.69 3081.43 3039.49 3015.22 2996.70 2978.81 2968.98 2970.84 2971.37 2982.21 3000.14 3004.41 3002.94 2999.82 2998.63 3008.42 3023.25 3041.75 3065.22 3085.24 3094.75 3084.33 3064.62 3045.05 3029.09 3003.88 2947.07 2898.72 2868.39 2839.14 2813.29 2792.84 2787.04 2783.75 2775.37 2765.44 2755.53 2743.61 2732.55 2723.77 2716.74 2712.29 2713.85 2721.97 2741.88 2764.19 2769.67 2756.51 2741.30
3025.02 3032.40 3034.06 3028.82 3028.44 3036.99 3064.11 3094.94 3111.02 3121.51 3120.26 3071.42 3032.94 3021.00 3018.53 3010.46 2993.77 2988.68 2988.87 2994.21 3003.91 2995.34 2972.53 2949.60 2934.25 2922.55 2905.94 2892.04 2881.51 2873.20 2872.06 2868.94 2861.33 2851.22 2845.47 2833.88 2817.20 2810.78 2814.56 2821.62 2828.35 2826.45 2815.75 2798.82 2777.25 2762.69 2762.34 2764.58 2761.16 2755.85 2751.80 2748.72 2745.97 2743.25 2740.49 2737.85 2734.76 2732.95 2732.75 2732.65 2732.64 2732.64 2732.64 2732.64 2732.65 2732.68 2732.74 2732.79 2732.87 2733.24 2736.01 2740.74 2744.89 2748.94 2753.39 2758.68 2766.24 2776.86 2788.98 2803.21 2822.46 2843.25 2867.40 2893.80 2921.90 2951.81 2985.53 3007.51 3016.37 3025.27 3035.70 3045.36 3054.33 3063.57 3071.84 3078.38 3085.44 3096.10 3102.99 3100.11 3096.34 3097.59 3102.62 3109.52 3116.98 3120.91 3122.99 3122.88 3099.98 3055.42 3026.13 3006.66 2990.60 2981.59 2984.67 2987.32 2997.25 3013.63 3020.31 3017.81 3013.50 3011.23 3018.83 3035.62 3056.80 3081.89 3098.16 3084.71 3062.53 3038.56 3014.09 2992.74 2971.99 2920.46 2878.98 2848.17 2820.00 2798.24 2783.43 2780.24 2781.43 2778.43 2769.71 2762.93 2753.60 2742.28 2733.09 2725.52 2724.06 2731.28 2747.53 2769.78 2783.13 2780.17 2764.19 2747.04
3007.98 3026.05 3037.58 3045.56 3055.25 3067.14 3087.65 3106.96 3120.29 3131.23 3139.97 3119.76 3060.58 3038.86 3033.92 3024.40 3006.33 3002.44 3002.29 3008.82 3020.88 3008.55 2984.22 2962.46 2947.56 2937.21 2922.48 2913.85 2903.15 2892.20 2888.15 2876.95 2868.17 2873.52 2870.99 2857.43 2843.87 2832.43 2830.58 2833.84 2832.54 2821.02 2806.63 2787.12 2764.34 2752.82 2752.19 2753.40 2753.00 2751.69 2750.48 2748.76 2746.73 2744.12 2741.38 2738.92 2736.17 2734.46 2733.61 2732.77 2732.65 2732.64 2732.64 2732.64 2732.65 2732.68 2732.73 2732.78 2732.85 2732.92 2733.56 2736.29 2739.59 2742.83 2746.83 2751.93 2757.81 2765.82 2777.69 2790.69 2806.97 2827.94 2848.94 2872.08 2898.16 2930.30 2962.70 2995.04 3009.82 3018.43 3028.39 3038.46 3047.51 3056.35 3064.37 3071.82 3080.30 3091.55 3101.62 3105.28 3105.12 3106.25 3109.09 3111.58 3113.75 3115.00 3116.22 3116.60 3108.77 3075.41 3041.34 3019.60 3003.51 2994.30 2994.67 3000.93 3010.43 3027.42 3036.81 3034.52 3027.92 3022.47 3030.04 3048.84 3070.22 3092.01 3092.08 3063.73 3037.33 3011.39 2982.16 2956.99 2938.35 2900.91 2865.38 2831.86 2802.99 2786.75 2780.30 2780.04 2779.45 2776.67 2771.38 2766.49 2760.61 2749.75 2740.46 2736.69 2742.24 2752.44 2771.08 2792.29 2798.46 2791.91 2775.62 2756.48
2989.05 3017.40 3039.09 3053.99 3067.48 3081.87 3098.69 3113.29 3125.80 3136.71 3146.50 3142.76 3088.85 3057.76 3046.06 3031.84 3018.26 3016.42 3008.63 3016.35 3028.44 3017.23 2995.47 2976.27 2964.93 2954.53 2940.36 2932.26 2922.23 2913.83 2906.91 2891.90 2890.94 2902.96 2902.60 2891.86 2880.39 2857.85 2845.28 2845.07 2834.85 2813.27 2793.21 2771.70 2754.94 2751.57 2751.54 2751.54 2751.54 2751.53 2751.13 2749.71 2747.94 2745.57 2742.66 2740.08 2737.93 2736.15 2734.89 2733.65 2732.81 2732.64 2732.64 2732.64 2732.65 2732.69 2732.73 2732.77 2732.83 2732.89 2732.93 2733.39 2734.92 2736.97 2740.21 2745.08 2751.17 2758.06 2768.21 2781.13 2795.98 2814.67 2834.61 2855.32 2878.14 2907.44 2940.02 2971.05 2998.00 3011.85 3022.41 3032.53 3041.29 3049.85 3057.95 3065.97 3075.97 3087.30 3097.63 3103.14 3105.29 3106.54 3107.16 3107.17 3107.08 3107.21 3107.83 3108.19 3106.43 3090.67 3058.59 3035.04 3018.26 3007.11 3003.70 3009.78 3021.82 3041.57 3053.75 3052.76 3046.42 3040.12 3046.75 3063.39 3081.07 3089.96 3072.10 3041.73 3013.98 2987.38 2957.66 2934.29 2915.30 2887.92 2857.76 2823.27 2793.64 2783.38 2784.48 2786.40 2784.94 2779.60 2772.37 2765.57 2760.68 2752.58 2745.63 2750.96 2766.48 2783.88 2800.40 2813.98 2817.35 2806.90 2787.78 2768.43
2979.00 3014.71 3041.18 3057.69 3071.90 3086.55 3102.39 3116.84 3130.31 3142.08 3151.90 3154.04 3113.00 3074.56 3056.48 3038.78 3026.90 3021.99 3015.50 3023.32 3035.95 3024.72 3005.07 2987.43 2977.68 2968.86 2956.77 2948.09 2939.54 2935.30 2929.28 2917.38 2919.79 2926.79 2924.75 2918.74 2902.71 2876.38 2863.05 2855.76 2833.38 2806.62 2783.12 2759.74 2751.77 2751.54 2751.54 2751.54 2751.54 2751.54 2751.50 2751.00 2749.69 2747.63 2744.10 2740.87 2738.89 2737.45 2736.22 2734.71 2733.16 2732.66 2732.64 2732.64 2732.65 2732.70 2732.74 2732.77 2732.81 2732.87 2732.90 2732.90 2732.96 2733.26 2734.94 2739.50 2745.06 2752.61 2761.40 2773.17 2786.84 2802.00 2820.79 2841.73 2863.30 2887.91 2917.71 2946.94 2976.16 3003.75 3018.33 3028.54 3037.10 3044.74 3052.71 3060.31 3070.29 3082.02 3090.68 3096.02 3099.05 3100.74 3100.87 3100.07 3099.30 3099.13 3099.82 3100.48 3100.00 3093.24 3074.04 3051.44 3034.93 3021.87 3014.84 3016.06 3031.12 3054.22 3071.73 3073.79 3068.12 3062.79 3068.00 3079.31 3087.02 3078.72 3053.58 3023.45 2998.85 2976.36 2951.81 2926.81 2898.02 2876.54 2851.72 2818.76 2794.80 2790.84 2794.30 2796.98 2793.49 2784.62 2774.89 2763.58 2758.19 2757.80 2761.98 2774.83 2795.49 2817.10 2831.28 2838.75 2837.98 2823.57 2802.50 2786.00
2980.80 3015.76 3041.80 3058.84 3073.42 3087.69 3102.13 3116.96 3131.76 3144.82 3155.35 3163.49 3153.20 3104.16 3070.53 3048.74 3030.93 3020.71 3023.07 3036.50 3043.96 3031.04 3014.79 3000.24 2991.59 2984.11 2973.75 2962.08 2956.65 2956.80 2954.32 2948.48 2950.25 2951.36 2947.78 2937.07 2914.96 2892.10 2882.44 2865.61 2830.25 2799.09 2772.87 2753.92 2751.54 2751.54 2751.54 2751.54 2751.54 2751.54 2751.54 2751.52 2751.32 2750.05 2744.77 2741.04 2739.81 2738.77 2737.60 2736.01 2734.28 2732.92 2732.65 2732.64 2732.65 2732.71 2732.75 2732.77 2732.80 2732.86 2732.89 2732.90 2732.90 2732.90 2733.25 2735.79 2740.60 2747.71 2756.21 2765.46 2777.20 2790.49 2806.35 2827.98 2849.76 2870.27 2896.15 2927.98 2964.77 2999.83 3017.16 3027.10 3034.48 3041.18 3048.52 3055.75 3064.01 3074.89 3082.94 3086.83 3088.86 3089.87 3090.13 3089.93 3089.95 3090.88 3092.44 3093.91 3094.54 3092.84 3085.33 3069.10 3053.13 3038.38 3026.39 3024.62 3041.91 3067.65 3090.92 3096.35 3093.25 3089.71 3091.96 3096.03 3086.98 3062.08 3034.61 3009.81 2991.14 2971.57 2951.88 2925.08 2889.65 2867.29 2842.39 2814.82 2801.29 2801.30 2806.75 2809.49 2802.02 2791.57 2781.28 2771.60 2764.73 2773.19 2787.39 2807.62 2832.82 2850.01 2857.00 2859.00 2854.65 2841.22 2824.24 2810.96
2986.68 3015.20 3038.37 3055.83 3070.96 3086.10 3099.75 3115.00 3131.04 3145.05 3155.83 3164.52 3168.97 3144.26 3090.69 3059.62 3036.87 3026.89 3040.71 3056.16 3049.01 3034.45 3021.68 3009.11 3001.29 2996.38 2988.39 2976.14 2973.18 2975.42 2976.60 2973.45 2975.62 2975.96 2969.35 2953.90 2926.32 2908.58 2901.98 2872.97 2828.68 2795.30 2766.38 2752.18 2751.54 2751.54 2751.54 2751.54 2751.54 2751.54 2751.54 2751.54 2751.54 2751.92 2751.30 2747.29 2743.46 2740.80 2739.29 2737.67 2735.90 2734.28 2733.20 2732.70 2732.64 2732.74 2732.79 2732.79 2732.80 2732.85 2732.90 2732.90 2732.90 2732.91 2733.14 2734.26 2738.80 2744.40 2751.95 2758.98 2767.66 2780.19 2794.28 2812.93 2834.48 2858.16 2886.54 2923.70 2964.58 2998.88 3017.10 3026.47 3032.56 3038.45 3045.01 3051.82 3058.81 3067.13 3074.20 3077.59 3078.61 3079.03 3079.42 3079.89 3080.87 3083.19 3085.86 3088.02 3090.43 3093.06 3092.10 3085.00 3072.96 3056.87 3042.82 3039.80 3056.08 3083.04 3108.29 3117.92 3116.71 3114.79 3115.19 3113.02 3087.65 3050.83 3023.95 3005.39 2991.44 2972.44 2950.75 2922.61 2890.72 2872.10 2844.90 2820.61 2814.77 2816.67 2822.30 2820.46 2810.28 2803.94 2799.96 2795.70 2795.45 2811.35 2833.30 2860.61 2880.66 2887.31 2884.98 2881.41 2873.77 2861.65 2851.10 2842.65
2985.30 3010.24 3029.71 3047.72 3066.24 3084.33 3099.87 3114.61 3130.50 3144.88 3155.44 3164.46 3171.24 3166.12 3118.40 3071.95 3051.36 3049.88 3062.31 3064.43 3048.70 3031.88 3020.15 3012.04 3007.26 3007.07 3001.06 2993.34 2993.40 2998.35 3003.80 3001.46 3001.96 2996.15 2982.23 2959.48 2932.06 2925.10 2915.69 2873.87 2829.00 2795.76 2768.73 2756.47 2752.98 2751.62 2751.54 2751.54 2751.54 2751.54 2751.54 2751.54 2751.64 2756.63 2765.97 2764.18 2756.95 2748.41 2742.13 2739.36 2737.81 2736.69 2735.57 2733.95 2732.81 2732.77 2732.85 2732.83 2732.79 2732.86 2732.91 2732.91 2732.95 2733.34 2734.28 2735.62 2738.46 2742.51 2748.58 2754.69 2760.30 2769.60 2783.14 2799.40 2823.56 2857.13 2891.24 2927.24 2965.13 2997.59 3015.97 3025.16 3030.25 3035.65 3041.61 3047.88 3054.27 3061.34 3066.58 3068.71 3069.38 3069.68 3070.04 3071.15 3073.69 3076.98 3080.50 3084.33 3089.25 3095.38 3098.23 3097.16 3091.99 3078.80 3064.09 3059.77 3075.31 3100.95 3122.90 3132.02 3131.56 3129.18 3128.01 3120.35 3087.00 3049.80 3024.64 3010.07 2998.00 2978.80 2953.34 2925.77 2897.84 2880.48 2855.49 2838.88 2835.39 2834.17 2832.25 2827.39 2825.56 2829.31 2835.39 2840.07 2852.95 2875.99 2896.65 2914.41 2923.98 2922.57 2914.38 2904.53 2895.82 2888.79 2880.77 2872.23
2977.69 3001.45 3021.58 3042.71 3064.81 3084.85 3101.18 3115.64 3130.87 3144.66 3154.82 3164.11 3172.95 3178.04 3147.04 3088.64 3070.96 3077.34 3079.14 3064.84 3047.54 3030.85 3019.19 3014.19 3015.26 3019.43 3015.48 3018.96 3032.06 3039.89 3041.41 3033.24 3020.97 3005.21 2984.96 2958.64 2938.10 2936.38 2924.14 2874.66 2830.25 2802.54 2778.58 2767.16 2760.36 2753.52 2751.57 2751.54 2751.54 2751.54 2751.54 2751.54 2752.34 2762.36 2778.52 2780.95 2774.79 2762.92 2749.77 2741.43 2739.69 2739.21 2740.25 2738.97 2735.39 2733.36 2732.97 2732.87 2732.79 2732.88 2732.95 2733.28 2733.93 2735.04 2736.06 2737.26 2738.82 2741.35 2746.03 2751.40 2756.14 2761.06 2771.36 2790.63 2820.95 2859.65 2904.31 2939.43 2962.95 2992.91 3012.29 3022.04 3027.18 3031.87 3037.46 3043.35 3048.57 3054.02 3057.98 3059.21 3059.81 3060.42 3061.02 3063.18 3067.52 3072.03 3077.71 3084.49 3091.73 3098.58 3104.29 3107.44 3107.31 3100.51 3088.95 3087.13 3101.54 3121.42 3135.95 3143.52 3141.93 3137.58 3131.85 3113.58 3075.89 3047.01 3025.90 3012.66 3000.46 2980.98 2953.66 2923.82 2895.06 2878.80 2867.61 2862.14 2854.16 2847.11 2843.55 2841.98 2849.54 2865.57 2884.50 2898.72 2916.30 2935.09 2948.47 2958.98 2962.02 2950.80 2939.70 2929.96 2924.26 2920.65 2915.00 2906.61
2960.24 2987.39 3011.05 3033.66 3058.60 3082.93 3101.46 3116.29 3131.13 3144.35 3154.24 3163.62 3173.14 3181.33 3168.25 3107.40 3089.13 3098.25 3088.46 3067.10 3053.30 3038.89 3023.50 3016.96 3021.94 3034.77 3033.58 3054.85 3078.38 3071.15 3055.76 3039.11 3022.92 3003.35 2979.56 2959.06 2949.15 2952.97 2936.52 2881.95 2835.63 2809.62 2786.41 2774.57 2767.73 2759.61 2753.07 2751.59 2751.54 2751.54 2751.54 2751.55 2753.77 2765.25 2784.53 2792.30 2788.76 2777.76 2761.82 2750.28 2745.27 2744.40 2753.06 2755.22 2745.00 2737.46 2734.69 2733.40 2732.87 2732.96 2733.19 2734.89 2736.87 2737.58 2737.98 2739.15 2740.30 2741.04 2744.01 2748.98 2753.64 2758.01 2767.33 2789.51 2820.16 2857.19 2896.08 2929.62 2952.93 2979.38 3004.06 3015.33 3022.46 3027.00 3031.61 3036.60 3040.82 3043.82 3045.76 3047.10 3048.84 3051.11 3053.13 3057.04 3061.99 3068.99 3077.81 3086.41 3094.73 3102.64 3109.89 3115.33 3119.08 3118.99 3115.36 3117.12 3127.14 3138.53 3148.09 3153.00 3150.75 3144.07 3130.43 3102.84 3067.49 3044.68 3027.51 3015.31 3003.37 2983.42 2956.66 2921.55 2895.23 2886.71 2884.65 2876.24 2861.69 2857.61 2860.25 2863.40 2881.88 2911.00 2934.14 2947.79 2965.50 2987.47 2997.05 3003.16 2995.45 2976.28 2963.12 2954.12 2953.06 2951.40 2948.38 2942.69
2939.71 2965.47 2988.70 3012.56 3040.76 3071.14 3097.18 3114.47 3129.98 3143.77 3153.81 3163.38 3172.52 3180.92 3181.39 3139.40 3111.38 3113.06 3099.08 3079.08 3064.90 3048.41 3032.03 3023.76 3029.67 3049.21 3061.98 3081.20 3088.22 3073.62 3053.53 3035.78 3021.36 3001.60 2980.09 2969.39 2968.47 2966.46 2946.35 2897.64 2849.87 2822.32 2802.83 2783.53 2773.85 2765.62 2757.79 2753.58 2752.16 2751.63 2751.54 2751.62 2755.79 2768.34 2785.43 2799.91 2799.56 2790.27 2777.07 2767.63 2760.36 2758.63 2768.19 2775.53 2767.37 2750.49 2741.59 2738.25 2736.05 2734.87 2735.50 2738.74 2740.97 2740.69 2740.11 2740.81 2742.41 2741.95 2742.98 2747.76 2752.75 2757.85 2767.81 2788.59 2814.45 2846.04 2882.62 2915.29 2936.39 2957.55 2985.75 3004.67 3013.80 3019.96 3024.30 3027.38 3030.10 3032.74 3035.12 3037.03 3039.52 3042.74 3045.09 3049.83 3058.38 3068.70 3079.84 3089.41 3098.49 3107.79 3116.40 3123.49 3129.58 3133.99 3137.25 3143.20 3150.84 3156.99 3161.85 3163.78 3159.00 3146.25 3123.36 3093.17 3063.20 3044.20 3030.96 3020.65 3011.94 3001.75 2981.84 2937.26 2909.05 2901.81 2898.16 2889.31 2878.59 2876.38 2886.28 2895.50 2919.89 2946.96 2970.55 2990.96 3010.87 3032.40 3040.28 3038.25 3022.96 3006.34 2992.44 2986.85 2990.05 2991.75 2989.81 2984.02
2924.61 2945.32 2965.01 2983.50 3010.86 3045.19 3077.41 3102.60 3123.12 3141.16 3152.46 3162.49 3171.16 3179.35 3184.76 3179.05 3154.48 3140.42 3116.28 3093.01 3071.64 3056.49 3045.63 3039.16 3040.50 3064.78 3087.81 3100.02 3094.46 3074.98 3054.05 3034.41 3019.03 3000.93 2982.95 2979.87 2977.23 2965.97 2951.57 2916.28 2871.87 2848.51 2823.31 2796.82 2783.34 2774.17 2767.57 2763.62 2759.73 2755.02 2753.39 2755.56 2765.17 2778.85 2790.82 2800.67 2804.79 2800.40 2791.90 2784.38 2776.56 2774.02 2782.64 2793.80 2791.28 2774.12 2757.37 2749.30 2744.12 2740.02 2739.19 2741.92 2744.57 2744.30 2742.57 2741.97 2744.00 2743.67 2743.57 2747.80 2752.80 2757.46 2765.70 2783.91 2806.64 2838.39 2871.66 2898.46 2916.20 2934.67 2960.73 2984.90 3001.20 3009.81 3014.49 3017.45 3019.71 3022.53 3026.35 3029.39 3032.08 3035.90 3039.27 3046.23 3057.84 3070.34 3082.61 3092.64 3102.80 3114.11 3124.14 3132.86 3140.23 3146.72 3153.52 3163.12 3171.35 3175.69 3176.22 3173.81 3165.06 3144.11 3114.55 3086.59 3061.84 3044.40 3034.37 3027.01 3021.06 3008.31 2989.31 2953.31 2929.36 2920.72 2917.00 2913.35 2909.08 2906.47 2920.18 2930.37 2951.06 2977.25 2999.90 3022.50 3047.21 3070.62 3080.06 3068.55 3050.30 3033.58 3020.48 3018.53 3024.78 3030.96 3030.26 3021.63
2911.82 2931.58 2946.14 2961.96 2982.81 3011.58 3047.94 3083.80 3112.23 3134.61 3149.58 3160.32 3168.92 3176.76 3182.79 3186.66 3185.66 3181.52 3144.72 3104.79 3081.62 3068.14 3059.93 3054.52 3055.48 3078.27 3103.15 3113.27 3099.51 3077.27 3056.71 3035.35 3017.63 3001.07 2986.86 2979.03 2966.28 2955.15 2944.01 2920.88 2902.10 2883.73 2848.73 2814.78 2799.89 2788.34 2782.63 2777.05 2771.03 2766.73 2763.04 2768.59 2783.02 2794.71 2803.21 2808.12 2810.05 2808.20 2803.56 2797.93 2790.93 2787.78 2797.99 2810.03 2811.78 2796.19 2776.64 2764.61 2756.90 2748.64 2743.21 2744.08 2747.41 2747.72 2745.87 2743.95 2745.28 2746.50 2746.34 2749.06 2753.61 2757.54 2764.42 2781.68 2800.87 2827.95 2854.59 2876.20 2896.27 2914.38 2935.45 2958.93 2977.68 2992.70 3001.65 3006.93 3011.63 3015.84 3019.66 3022.23 3024.69 3031.09 3038.27 3047.38 3059.41 3072.92 3085.51 3095.98 3107.87 3121.23 3132.72 3142.83 3151.46 3158.88 3167.18 3177.18 3185.29 3189.41 3188.75 3183.73 3172.26 3146.17 3112.16 3084.40 3062.48 3047.96 3039.42 3030.49 3019.17 2998.34 2976.51 2957.21 2941.88 2937.43 2934.65 2935.02 2939.74 2941.62 2948.93 2957.53 2978.06 3002.81 3021.33 3043.54 3070.37 3097.94 3113.61 3102.87 3079.29 3059.00 3047.96 3047.29 3056.46 3066.86 3065.40 3052.91
2900.52 2921.84 2933.71 2947.06 2965.76 2987.45 3024.25 3065.52 3101.67 3128.11 3146.51 3158.26 3166.64 3172.53 3177.47 3181.23 3183.97 3187.20 3169.57 3126.36 3098.66 3084.00 3075.92 3071.57 3072.44 3091.38 3117.08 3123.21 3104.45 3080.67 3057.74 3035.60 3014.51 2995.57 2982.14 2969.42 2955.97 2946.02 2934.71 2922.51 2922.34 2906.78 2870.49 2832.70 2814.22 2806.42 2801.07 2791.81 2782.86 2781.02 2778.05 2780.21 2794.33 2805.97 2814.70 2820.27 2819.31 2817.01 2812.28 2806.85 2802.20 2799.03 2808.65 2823.92 2830.88 2818.20 2798.61 2783.86 2774.16 2763.57 2754.74 2751.65 2751.74 2751.26 2750.08 2749.25 2749.27 2749.45 2749.81 2750.80 2754.00 2757.75 2765.53 2781.03 2794.88 2814.05 2837.53 2854.81 2873.16 2893.34 2911.21 2930.40 2949.03 2964.21 2978.92 2992.46 3004.39 3010.25 3014.46 3017.47 3021.67 3029.90 3038.99 3049.39 3061.78 3075.99 3088.60 3099.96 3113.99 3128.54 3142.05 3153.91 3163.60 3171.86 3180.71 3189.80 3196.79 3201.07 3200.67 3194.05 3180.13 3154.14 3119.01 3088.27 3068.72 3056.47 3045.28 3031.72 3014.19 2991.18 2969.21 2954.49 2944.95 2947.50 2949.13 2955.09 2970.01 2978.47 2983.43 2989.60 3003.86 3023.33 3040.25 3060.30 3086.90 3112.08 3133.21 3134.76 3113.83 3092.59 3084.15 3080.86 3090.74 3101.72 3100.66 3088.17
2897.31 2915.20 2922.41 2933.22 2954.78 2976.92 3009.11 3048.64 3088.35 3120.14 3142.54 3155.15 3163.36 3165.77 3166.82 3169.26 3175.11 3181.16 3182.33 3167.55 3134.45 3107.85 3098.71 3096.52 3095.64 3108.58 3132.03 3130.18 3108.22 3082.45 3055.83 3033.21 3010.69 2985.61 2971.47 2961.21 2950.17 2940.23 2932.03 2931.04 2930.56 2916.70 2890.15 2858.75 2833.57 2823.89 2812.51 2803.25 2796.64 2796.99 2794.98 2791.06 2799.53 2810.43 2819.68 2825.00 2825.64 2823.74 2818.89 2812.28 2807.31 2804.54 2811.65 2827.90 2841.44 2838.54 2823.24 2805.86 2792.16 2780.22 2768.00 2760.33 2757.09 2755.32 2755.04 2755.06 2754.48 2753.25 2753.54 2753.92 2754.59 2757.64 2764.33 2777.06 2788.67 2801.58 2821.37 2839.03 2853.44 2870.75 2888.73 2906.16 2925.38 2942.06 2957.08 2973.60 2993.66 3005.27 3010.41 3015.87 3022.46 3031.02 3040.59 3051.54 3064.33 3079.21 3091.82 3104.85 3120.65 3135.78 3152.20 3165.98 3176.52 3185.96 3194.69 3202.03 3207.01 3210.72 3213.35 3203.58 3183.41 3158.20 3124.24 3094.79 3078.06 3063.88 3049.26 3033.02 3014.03 2993.05 2973.02 2958.13 2952.65 2959.91 2968.27 2979.79 2998.91 3011.63 3018.69 3020.90 3027.04 3043.11 3057.93 3076.19 3099.97 3125.17 3146.06 3156.07 3147.38 3131.79 3124.20 3118.50 3127.34 3136.82 3135.45 3124.70
2890.17 2904.31 2905.24 2918.36 2943.97 2967.04 2996.56 3032.88 3071.89 3110.38 3137.53 3150.33 3156.37 3156.75 3156.24 3158.31 3165.03 3171.39 3175.04 3174.65 3165.02 3141.38 3130.25 3125.53 3120.51 3127.62 3144.24 3133.44 3109.97 3082.95 3055.38 3029.78 3006.50 2980.19 2963.60 2955.33 2947.60 2939.63 2935.76 2941.11 2937.80 2928.01 2916.15 2889.81 2859.50 2834.41 2817.25 2809.75 2805.79 2806.68 2808.46 2803.47 2802.99 2814.21 2821.75 2827.14 2830.34 2827.48 2821.96 2815.71 2811.25 2809.48 2812.87 2822.85 2837.93 2846.28 2840.48 2826.68 2810.59 2795.75 2782.46 2770.45 2762.46 2759.07 2759.31 2760.08 2758.70 2756.86 2756.98 2757.96 2757.05 2758.41 2762.65 2772.06 2782.32 2793.17 2805.85 2821.87 2836.43 2851.16 2867.17 2885.78 2906.22 2924.50 2941.28 2957.43 2977.93 2997.49 3006.59 3013.64 3022.14 3031.34 3041.80 3053.04 3066.44 3082.07 3094.59 3109.18 3126.25 3143.24 3162.71 3178.48 3192.16 3203.44 3210.85 3214.48 3216.00 3217.32 3218.06 3203.53 3176.19 3148.58 3116.92 3093.76 3079.95 3066.23 3051.02 3034.17 3015.47 2994.83 2975.51 2962.83 2962.63 2974.98 2991.05 3005.28 3022.06 3035.93 3044.15 3045.46 3047.63 3061.00 3075.54 3092.03 3114.23 3137.98 3156.69 3169.10 3172.36 3163.79 3153.19 3143.27 3154.44 3165.25 3166.75 3158.51
2880.05 2891.63 2895.85 2907.20 2929.60 2955.61 2984.23 3018.43 3059.24 3102.20 3131.63 3144.76 3147.83 3147.00 3145.97 3148.69 3154.70 3159.94 3163.77 3167.52 3172.07 3170.48 3165.42 3156.84 3147.44 3149.48 3155.38 3134.13 3109.96 3083.09 3056.18 3025.47 2997.00 2974.80 2959.77 2951.56 2944.26 2937.26 2937.00 2944.59 2942.24 2934.62 2930.43 2922.56 2896.81 2853.37 2822.01 2814.55 2811.95 2812.00 2817.74 2817.34 2810.79 2820.18 2825.10 2828.87 2831.40 2829.72 2824.22 2818.52 2815.02 2813.65 2813.76 2817.92 2831.05 2845.26 2848.41 2840.83 2828.86 2813.92 2797.45 2783.75 2772.72 2765.43 2763.86 2764.90 2762.76 2760.22 2759.22 2760.95 2760.71 2759.28 2761.67 2768.00 2777.35 2787.15 2795.61 2805.83 2819.61 2834.24 2849.87 2869.17 2891.15 2909.99 2927.61 2944.10 2961.07 2982.46 2999.43 3009.03 3018.71 3029.68 3042.06 3053.72 3067.75 3083.83 3096.79 3113.04 3131.70 3151.95 3173.13 3193.00 3210.44 3224.44 3230.62 3229.62 3225.08 3218.03 3207.27 3186.29 3157.89 3128.56 3103.67 3088.17 3075.82 3063.61 3049.46 3034.65 3017.44 2997.05 2982.21 2978.70 2980.98 2994.00 3013.83 3026.89 3036.98 3049.81 3060.90 3064.62 3064.78 3076.68 3092.09 3109.81 3130.83 3151.54 3168.27 3179.01 3182.39 3174.04 3162.32 3157.83 3171.60 3185.40 3191.20 3181.78
2868.89 2881.93 2891.87 2903.32 2924.44 2953.37 2982.15 3012.79 3056.28 3099.73 3125.26 3136.06 3137.76 3135.43 3133.09 3135.59 3141.77 3147.30 3153.06 3160.58 3172.12 3182.10 3180.02 3167.04 3157.24 3155.34 3155.75 3134.26 3109.08 3081.89 3054.27 3022.85 2991.18 2971.24 2957.78 2947.50 2938.79 2932.81 2936.94 2948.50 2947.72 2940.88 2941.27 2945.58 2922.02 2867.41 2828.79 2819.87 2817.13 2816.12 2820.44 2824.14 2820.13 2823.45 2828.58 2831.46 2831.82 2831.24 2827.27 2821.38 2818.06 2817.43 2817.54 2817.19 2825.27 2841.31 2850.29 2847.93 2840.15 2829.40 2814.83 2797.33 2784.61 2776.31 2771.89 2769.81 2767.32 2764.04 2761.03 2761.22 2762.00 2760.59 2760.54 2763.19 2771.11 2780.99 2787.91 2794.82 2803.22 2820.71 2841.46 2860.36 2880.61 2898.32 2915.34 2931.80 2946.98 2964.18 2984.26 3000.71 3012.99 3025.70 3040.27 3053.36 3068.40 3085.09 3099.64 3117.69 3137.69 3160.14 3182.63 3206.52 3227.96 3246.03 3251.33 3244.07 3230.16 3214.46 3196.25 3170.33 3140.10 3113.14 3095.62 3082.86 3071.24 3059.63 3048.12 3036.67 3022.66 3009.16 3003.97 3004.48 3005.53 3016.81 3032.93 3042.46 3049.11 3059.92 3072.70 3079.99 3080.43 3091.78 3108.17 3127.62 3148.10 3166.64 3179.58 3185.17 3185.43 3178.49 3169.45 3170.26 3185.29 3200.15 3207.21 3196.46
2861.38 2878.02 2891.81 2906.56 2928.95 2955.12 2981.87 3010.05 3056.44 3097.88 3117.88 3124.21 3124.28 3121.94 3119.01 3120.28 3127.03 3134.71 3143.19 3153.71 3167.99 3182.05 3178.48 3160.49 3147.84 3145.83 3148.01 3133.54 3106.92 3077.34 3049.31 3018.28 2987.63 2967.02 2950.92 2939.28 2933.05 2931.69 2934.54 2945.25 2951.05 2950.97 2954.44 2956.89 2929.47 2881.94 2849.32 2833.49 2824.39 2819.77 2822.70 2828.30 2825.35 2827.99 2836.03 2836.54 2833.55 2831.86 2830.35 2825.36 2820.49 2820.26 2821.99 2821.07 2822.00 2835.54 2849.03 2854.01 2848.81 2839.40 2827.90 2811.60 2795.67 2785.35 2779.08 2775.11 2771.62 2767.54 2762.76 2761.02 2762.28 2762.55 2761.94 2762.69 2767.38 2776.13 2781.52 2787.41 2798.21 2818.56 2843.67 2861.04 2875.28 2889.04 2904.84 2920.71 2934.89 2949.51 2966.84 2986.72 3004.51 3018.93 3035.19 3050.85 3067.07 3085.71 3103.57 3122.44 3142.33 3165.13 3188.29 3213.42 3238.47 3260.07 3265.36 3250.79 3230.48 3209.60 3186.65 3159.47 3132.77 3109.88 3093.28 3080.51 3068.79 3058.31 3049.06 3042.09 3035.14 3028.21 3025.37 3024.24 3024.77 3034.61 3047.81 3056.92 3062.17 3070.36 3081.21 3088.12 3092.89 3105.28 3124.14 3145.78 3165.94 3180.54 3187.49 3189.82 3188.64 3183.37 3179.82 3185.88 3197.82 3211.90 3219.58 3209.48
2860.94 2880.12 2895.90 2915.56 2940.75 2964.74 2986.82 3015.93 3060.53 3093.68 3107.33 3111.21 3111.13 3109.27 3106.42 3108.25 3114.92 3123.28 3134.04 3147.27 3164.40 3180.88 3177.01 3156.48 3141.21 3138.28 3142.78 3133.73 3106.64 3073.16 3040.07 3009.95 2983.39 2963.47 2943.46 2932.72 2931.70 2931.68 2933.22 2940.85 2950.66 2958.04 2964.66 2964.58 2942.60 2907.70 2873.47 2853.02 2838.02 2829.68 2833.65 2839.24 2836.23 2835.48 2841.06 2841.05 2837.21 2834.31 2833.14 2829.63 2822.86 2822.13 2826.15 2824.65 2820.70 2827.60 2845.07 2857.56 2857.53 2849.09 2837.68 2824.11 2806.80 2794.10 2785.92 2780.29 2776.41 2772.22 2766.40 2761.83 2761.83 2764.11 2765.00 2765.50 2768.22 2773.39 2777.61 2781.65 2794.94 2817.00 2842.59 2863.07 2876.82 2886.23 2898.68 2910.61 2923.07 2936.36 2951.41 2969.47 2990.87 3009.43 3026.87 3045.39 3063.14 3084.98 3105.44 3123.80 3142.78 3164.45 3187.31 3210.68 3235.36 3256.47 3264.28 3249.77 3229.35 3205.05 3179.73 3153.44 3131.45 3111.70 3094.21 3081.28 3072.27 3065.67 3061.92 3057.05 3050.68 3043.11 3039.78 3038.42 3038.91 3048.00 3060.35 3069.85 3074.30 3079.84 3087.86 3094.16 3102.07 3117.25 3137.90 3160.73 3180.67 3193.00 3196.73 3195.50 3193.02 3190.43 3191.62 3199.47 3211.00 3223.10 3229.89 3222.83
2868.64 2886.86 2903.21 2926.56 2951.02 2972.01 2994.22 3023.55 3062.82 3087.45 3096.00 3098.53 3098.65 3097.15 3094.53 3096.75 3103.78 3113.83 3126.67 3141.38 3160.21 3179.46 3177.27 3155.55 3139.56 3133.16 3135.65 3131.76 3107.97 3074.17 3036.20 3007.75 2984.91 2967.56 2946.23 2932.37 2931.68 2931.69 2932.89 2940.97 2951.94 2962.52 2972.88 2975.70 2959.52 2928.88 2894.28 2871.14 2853.54 2846.06 2847.47 2852.45 2845.77 2838.43 2839.47 2842.98 2841.15 2843.87 2844.07 2837.19 2826.72 2823.89 2830.56 2832.61 2827.63 2824.64 2841.03 2856.70 2863.32 2859.31 2848.54 2834.74 2818.25 2802.81 2793.49 2786.94 2782.50 2778.91 2772.78 2764.91 2762.05 2764.62 2766.96 2767.62 2769.76 2773.70 2777.33 2780.15 2789.54 2810.38 2835.91 2861.75 2880.90 2887.80 2894.35 2901.54 2910.97 2921.78 2935.30 2952.43 2972.35 2995.05 3014.45 3034.88 3054.91 3076.58 3096.44 3115.23 3135.64 3156.39 3178.97 3200.01 3222.08 3241.40 3252.92 3245.50 3227.25 3202.88 3178.68 3152.75 3131.74 3116.29 3105.23 3096.31 3089.56 3084.57 3079.89 3073.56 3065.35 3056.42 3052.63 3051.18 3051.35 3059.33 3071.53 3081.80 3085.22 3088.36 3095.12 3101.33 3112.04 3128.31 3147.83 3168.77 3191.05 3202.94 3203.56 3200.40 3198.09 3199.61 3204.30 3213.13 3223.32 3232.01 3239.99 3239.17
2884.77 2905.87 2918.70 2939.67 2961.61 2978.96 3001.26 3030.95 3063.02 3079.20 3084.79 3086.71 3087.12 3085.81 3081.85 3084.18 3092.94 3104.88 3119.99 3135.77 3154.50 3176.45 3179.78 3158.19 3140.23 3129.56 3123.71 3119.73 3104.64 3073.73 3035.04 3006.45 2986.18 2969.36 2947.29 2932.41 2931.68 2932.13 2935.80 2944.72 2956.02 2969.58 2983.45 2988.61 2975.08 2948.65 2920.71 2893.38 2871.17 2862.47 2859.17 2862.01 2852.96 2840.84 2835.40 2841.76 2849.06 2857.62 2857.14 2842.91 2833.26 2831.36 2836.96 2846.45 2843.39 2830.96 2838.75 2853.96 2865.47 2867.99 2860.45 2847.11 2831.20 2814.99 2801.89 2794.61 2789.72 2785.60 2780.65 2772.24 2764.69 2765.52 2767.89 2769.13 2770.96 2774.36 2778.80 2782.11 2786.62 2801.91 2824.60 2849.68 2870.83 2882.17 2888.58 2894.05 2900.33 2908.62 2918.96 2935.06 2953.05 2975.01 2997.83 3018.51 3039.53 3059.62 3077.88 3096.97 3118.93 3141.84 3162.69 3183.91 3204.06 3221.08 3233.35 3235.33 3225.10 3205.65 3182.46 3157.70 3141.85 3135.02 3130.85 3125.69 3117.47 3107.67 3098.62 3089.64 3080.07 3070.61 3065.55 3063.18 3061.63 3067.57 3079.58 3089.36 3095.42 3099.06 3104.28 3112.01 3123.10 3137.00 3154.74 3174.20 3194.75 3205.44 3207.15 3204.90 3204.52 3208.60 3215.37 3223.88 3231.81 3239.80 3248.72 3252.85
2908.92 2926.64 2936.61 2953.30 2973.49 2993.45 3016.84 3039.97 3059.14 3068.54 3072.77 3074.35 3074.47 3072.57 3068.00 3071.74 3082.10 3095.41 3111.76 3129.37 3149.11 3172.57 3180.54 3163.04 3143.09 3128.57 3119.00 3114.37 3102.29 3067.53 3024.46 2995.56 2978.07 2963.74 2942.38 2931.88 2931.68 2933.10 2938.72 2948.52 2962.88 2980.30 2996.71 3002.33 2990.58 2970.73 2947.15 2919.71 2892.72 2876.84 2869.48 2865.13 2854.49 2841.20 2832.68 2836.13 2851.14 2862.36 2857.89 2846.18 2838.81 2838.67 2841.85 2855.73 2855.73 2839.80 2838.43 2850.34 2865.43 2875.85 2872.88 2860.57 2845.88 2830.72 2815.53 2803.15 2796.13 2791.18 2786.67 2780.83 2774.00 2770.47 2769.59 2770.12 2771.25 2773.61 2777.32 2781.84 2788.30 2797.84 2812.72 2831.81 2851.75 2867.86 2879.54 2886.62 2892.07 2898.45 2907.12 2919.41 2935.54 2953.84 2976.40 2999.62 3020.25 3039.78 3056.75 3074.68 3095.87 3119.77 3142.38 3163.43 3184.15 3201.53 3213.07 3219.53 3220.29 3211.06 3193.53 3174.96 3166.92 3163.11 3159.25 3154.56 3147.95 3135.22 3119.57 3106.62 3095.11 3085.60 3078.49 3073.51 3070.74 3074.76 3085.25 3096.56 3105.81 3112.09 3117.23 3122.63 3132.28 3145.23 3162.06 3180.00 3197.60 3206.54 3210.05 3211.46 3213.89 3218.21 3224.71 3232.34 3239.98 3248.47 3257.54 3262.30
2932.12 2945.19 2954.76 2972.47 2991.51 3009.79 3026.44 3038.21 3049.25 3056.77 3060.15 3061.08 3060.08 3056.57 3052.32 3058.72 3070.83 3085.36 3102.82 3121.44 3142.23 3164.33 3175.41 3165.86 3146.05 3130.79 3122.91 3121.65 3106.61 3064.31 3017.00 2987.48 2969.62 2951.70 2935.65 2931.70 2931.74 2935.28 2943.88 2953.87 2969.62 2988.52 3005.99 3023.29 3019.13 2993.98 2967.69 2940.43 2911.33 2892.40 2882.56 2873.75 2859.03 2841.34 2831.99 2832.85 2845.09 2860.13 2857.86 2850.04 2843.53 2843.00 2849.08 2856.63 2859.18 2845.02 2839.28 2848.10 2863.85 2877.82 2881.96 2872.56 2858.68 2844.71 2830.31 2815.32 2802.77 2796.07 2791.30 2786.12 2780.69 2776.37 2773.14 2772.14 2772.30 2773.89 2776.26 2779.83 2785.80 2794.06 2803.76 2817.95 2834.86 2850.99 2864.33 2875.18 2882.40 2888.52 2895.74 2905.97 2920.38 2937.29 2956.08 2978.42 2999.98 3018.56 3035.09 3052.06 3070.87 3094.23 3119.60 3143.00 3163.49 3182.14 3197.47 3209.17 3218.41 3219.61 3212.13 3202.39 3197.06 3193.94 3190.60 3185.97 3177.25 3160.33 3139.12 3123.06 3109.06 3097.61 3089.10 3082.45 3077.90 3079.03 3088.96 3102.47 3115.53 3125.26 3132.29 3137.99 3144.88 3156.28 3171.72 3187.65 3202.19 3209.56 3214.45 3217.62 3221.15 3226.73 3233.62 3241.22 3249.67 3258.21 3264.85 3259.95
2957.63 2968.46 2976.07 2989.02 3002.79 3012.81 3021.82 3029.90 3038.38 3044.47 3046.49 3046.68 3044.06 3039.25 3035.56 3043.64 3057.55 3073.80 3092.80 3112.95 3133.47 3154.05 3167.79 3167.65 3150.65 3136.05 3131.14 3127.03 3104.02 3058.09 3015.97 2989.27 2968.65 2947.04 2935.06 2932.32 2932.22 2938.40 2949.03 2961.32 2979.45 2999.21 3020.68 3064.94 3073.29 3023.13 2981.71 2952.40 2927.30 2906.69 2887.87 2878.00 2863.47 2842.08 2831.90 2831.89 2837.98 2853.45 2860.27 2857.85 2857.40 2852.62 2858.10 2860.25 2856.08 2847.92 2843.09 2847.63 2860.80 2874.78 2884.21 2881.37 2869.79 2856.56 2842.67 2827.81 2813.00 2802.29 2796.30 2790.87 2784.89 2780.11 2776.83 2774.42 2773.78 2775.21 2776.75 2778.58 2782.80 2789.87 2797.87 2808.67 2822.09 2836.64 2848.25 2858.74 2867.93 2875.08 2882.30 2891.41 2904.51 2922.05 2939.88 2959.09 2979.22 2998.79 3014.61 3030.19 3048.96 3069.97 3094.75 3120.76 3143.68 3162.80 3183.90 3204.25 3220.48 3229.68 3230.34 3228.14 3226.36 3224.32 3220.40 3211.69 3198.23 3177.67 3156.36 3138.18 3122.63 3108.79 3098.02 3090.08 3083.34 3082.74 3092.79 3107.50 3123.21 3136.32 3146.33 3154.27 3161.95 3170.18 3181.98 3197.03 3207.65 3214.68 3219.72 3224.00 3229.23 3235.65 3243.35 3252.13 3260.54 3268.13 3272.20 3255.51
2973.00 2982.08 2987.38 2993.41 2999.51 3003.63 3008.92 3017.96 3026.15 3030.46 3031.10 3029.87 3027.42 3024.41 3021.04 3029.93 3043.48 3062.40 3082.33 3104.40 3124.99 3144.46 3160.97 3166.82 3155.91 3141.82 3138.60 3132.34 3096.96 3050.62 3018.38 2996.89 2970.21 2945.31 2935.95 2934.12 2935.75 2944.19 2953.52 2965.44 2988.79 3014.89 3043.16 3093.96 3105.33 3046.40 2994.26 2961.64 2936.53 2909.31 2883.80 2872.12 2860.76 2840.23 2831.86 2831.72 2834.59 2846.88 2861.25 2864.15 2869.80 2867.15 2865.56 2864.93 2857.94 2854.59 2853.49 2854.04 2859.23 2870.88 2882.89 2885.83 2878.67 2867.09 2854.12 2839.95 2825.61 2812.88 2803.16 2796.61 2790.58 2784.51 2779.90 2776.85 2775.16 2776.43 2779.15 2779.91 2781.12 2785.83 2793.34 2801.54 2811.68 2822.44 2829.46 2839.52 2850.65 2858.67 2866.27 2875.51 2888.01 2905.25 2924.38 2942.08 2959.67 2979.03 2997.73 3013.30 3030.95 3052.55 3075.46 3100.40 3126.17 3149.48 3174.82 3202.01 3223.19 3238.43 3247.05 3249.20 3249.73 3249.24 3244.60 3231.28 3212.55 3192.14 3171.55 3152.08 3133.92 3118.88 3106.61 3097.34 3091.14 3091.67 3098.41 3111.00 3128.66 3145.82 3159.56 3173.89 3184.46 3189.83 3195.85 3205.79 3214.49 3221.23 3226.86 3232.48 3238.40 3245.70 3255.08 3263.78 3271.12 3278.15 3279.07 3249.76
2976.77 2981.62 2983.03 2985.11 2987.17 2988.91 2995.72 3005.97 3014.09 3016.73 3016.13 3013.22 3010.79 3009.20 3008.69 3018.67 3031.96 3052.63 3073.87 3096.10 3117.07 3137.70 3156.92 3164.93 3158.91 3149.54 3145.19 3134.72 3095.88 3048.27 3017.51 2995.18 2966.24 2944.56 2936.17 2935.98 2940.34 2949.11 2959.77 2973.56 2997.41 3025.13 3059.63 3108.75 3119.34 3057.56 2999.58 2962.83 2932.44 2899.99 2878.89 2869.08 2856.37 2838.74 2832.00 2831.71 2833.24 2842.87 2860.28 2872.44 2880.54 2882.41 2877.44 2873.18 2867.44 2864.42 2865.66 2865.67 2866.20 2873.27 2883.05 2888.86 2884.74 2876.30 2864.84 2851.70 2838.14 2824.85 2813.18 2804.01 2797.08 2790.56 2783.92 2779.08 2776.81 2777.55 2780.63 2782.96 2782.65 2783.27 2789.71 2796.81 2802.66 2809.88 2815.86 2824.94 2836.36 2844.97 2852.67 2861.11 2872.94 2888.69 2907.00 2925.66 2942.58 2959.76 2979.96 3000.52 3018.04 3038.98 3061.96 3086.71 3113.62 3140.29 3166.61 3197.02 3223.91 3245.23 3262.51 3268.84 3271.82 3272.19 3266.19 3250.49 3226.77 3203.97 3182.61 3162.95 3143.15 3127.23 3114.57 3104.14 3098.78 3102.14 3108.87 3118.36 3134.92 3156.31 3177.03 3194.75 3204.33 3207.19 3209.73 3214.91 3221.73 3228.56 3234.85 3241.24 3248.39 3256.87 3265.44 3273.33 3281.55 3288.33 3281.06 3246.77
2973.18 2972.74 2970.70 2972.74 2974.71 2977.83 2987.11 2997.06 3003.41 3004.71 3003.46 2999.87 2997.36 2997.12 2999.50 3009.35 3024.20 3045.39 3068.39 3090.05 3112.82 3137.09 3156.45 3165.33 3162.17 3156.88 3151.25 3134.37 3095.35 3051.27 3017.12 2987.17 2960.84 2943.57 2937.48 2938.29 2943.54 2954.58 2966.41 2981.46 3005.62 3034.44 3073.34 3123.52 3133.10 3058.88 2998.56 2960.09 2924.67 2893.59 2876.85 2868.34 2856.01 2838.58 2831.98 2831.70 2832.31 2839.29 2857.87 2880.02 2889.83 2892.17 2890.50 2889.05 2885.06 2878.89 2877.27 2881.21 2884.71 2890.85 2895.73 2894.44 2890.41 2884.67 2875.04 2862.80 2850.09 2837.15 2823.99 2813.43 2804.91 2797.56 2789.91 2782.19 2778.68 2779.76 2780.86 2783.25 2786.38 2787.42 2792.84 2798.20 2799.86 2802.20 2808.30 2817.50 2827.16 2835.16 2842.03 2850.00 2859.96 2873.62 2890.86 2910.24 2928.31 2945.68 2964.60 2987.34 3008.42 3026.89 3050.55 3074.42 3101.51 3131.57 3157.63 3188.37 3220.43 3247.42 3269.88 3282.92 3290.49 3293.35 3285.90 3267.68 3242.40 3214.96 3191.19 3169.35 3149.14 3133.34 3121.03 3111.55 3108.85 3116.41 3125.81 3137.58 3151.38 3170.86 3195.40 3212.44 3219.81 3219.02 3219.51 3223.90 3229.05 3235.61 3242.68 3250.45 3258.36 3266.18 3273.78 3282.49 3292.94 3300.43 3290.48 3258.09
2966.12 2962.00 2959.12 2961.27 2963.24 2968.49 2978.84 2986.60 2990.61 2991.38 2990.45 2988.66 2986.79 2987.71 2994.51 3005.51 3021.34 3044.17 3068.18 3089.23 3112.45 3137.48 3156.57 3167.48 3167.50 3164.09 3158.34 3132.53 3092.53 3055.21 3022.29 2991.18 2965.04 2946.01 2941.94 2942.73 2949.42 2961.03 2972.81 2985.66 3006.23 3037.09 3083.04 3126.29 3099.72 3036.20 2992.36 2953.92 2918.40 2890.27 2876.71 2867.91 2854.92 2839.51 2832.79 2831.72 2832.06 2839.73 2858.55 2887.22 2905.08 2907.39 2909.33 2911.42 2905.94 2894.01 2888.81 2897.32 2908.52 2915.70 2912.42 2901.16 2897.19 2895.47 2885.56 2872.92 2860.78 2848.28 2835.16 2823.31 2814.14 2806.00 2797.75 2787.97 2781.46 2783.10 2786.30 2787.20 2790.57 2793.20 2798.07 2802.72 2803.46 2801.38 2803.00 2811.01 2820.19 2827.94 2834.01 2840.52 2849.66 2863.77 2882.54 2902.77 2920.88 2937.51 2954.07 2974.62 2999.51 3017.43 3039.02 3062.61 3087.02 3116.08 3145.79 3177.14 3211.51 3244.18 3270.85 3289.70 3302.80 3307.88 3302.29 3282.45 3255.33 3226.15 3198.80 3174.54 3154.38 3139.34 3128.28 3122.21 3127.12 3138.29 3151.35 3164.90 3178.64 3194.26 3212.51 3224.36 3227.88 3227.42 3228.48 3232.76 3237.25 3243.42 3251.54 3259.50 3267.06 3274.23 3282.76 3293.83 3304.04 3310.61 3303.46 3273.17
2954.95 2950.72 2950.88 2952.72 2955.03 2960.25 2968.40 2974.56 2977.11 2977.49 2977.26 2976.85 2976.85 2981.60 2992.06 3004.91 3020.65 3044.10 3067.86 3088.31 3111.83 3137.05 3156.95 3172.33 3174.08 3170.02 3162.89 3136.73 3095.98 3060.53 3028.35 2997.63 2970.21 2954.21 2955.12 2954.16 2955.08 2965.77 2980.06 2988.54 3002.63 3033.95 3086.64 3112.32 3070.50 3017.51 2982.31 2948.72 2917.65 2894.26 2880.01 2869.10 2855.01 2840.82 2834.72 2832.21 2832.26 2843.38 2867.54 2893.41 2922.59 2930.50 2928.68 2926.86 2921.12 2912.00 2908.34 2915.90 2925.78 2928.39 2922.92 2908.06 2900.00 2901.44 2896.33 2883.16 2869.76 2857.15 2844.60 2832.99 2823.55 2814.96 2805.31 2794.98 2788.19 2792.42 2799.96 2800.88 2799.10 2797.11 2800.05 2806.52 2809.54 2807.19 2802.84 2805.13 2814.11 2821.41 2826.57 2833.80 2843.61 2860.88 2881.64 2902.60 2918.17 2932.71 2947.13 2963.57 2988.63 3009.66 3026.96 3050.12 3073.04 3099.28 3131.04 3164.96 3199.52 3235.45 3268.27 3292.65 3311.42 3316.66 3302.67 3281.54 3259.53 3232.98 3204.43 3180.09 3160.74 3146.00 3136.48 3136.69 3147.33 3161.40 3177.09 3192.63 3207.30 3220.11 3229.03 3234.13 3234.78 3234.74 3236.95 3241.48 3246.91 3253.91 3261.63 3268.57 3275.64 3283.66 3294.69 3305.09 3313.41 3320.20 3313.47 3282.83
2940.89 2939.11 2941.92 2944.40 2947.10 2952.59 2958.32 2962.04 2963.79 2964.14 2964.48 2964.93 2968.48 2979.29 2991.21 3004.47 3021.82 3045.73 3069.75 3090.29 3113.16 3137.52 3157.68 3174.00 3176.71 3172.56 3165.38 3142.22 3098.86 3062.54 3029.31 2999.73 2975.25 2960.24 2966.11 2966.57 2959.79 2964.43 2983.09 2998.53 3003.63 3032.61 3083.12 3085.75 3040.47 3002.81 2978.74 2950.45 2920.49 2899.14 2885.22 2873.96 2859.05 2843.02 2836.49 2833.22 2833.61 2844.25 2872.43 2904.05 2933.72 2943.41 2940.23 2934.92 2935.27 2938.40 2940.51 2941.53 2940.78 2936.74 2927.42 2910.54 2900.52 2901.50 2901.85 2893.85 2877.99 2865.03 2852.78 2841.27 2831.63 2822.53 2810.80 2801.51 2798.79 2803.25 2814.31 2818.54 2816.36 2809.09 2804.01 2809.61 2816.72 2818.58 2813.45 2809.68 2815.14 2820.79 2824.42 2830.98 2840.33 2857.27 2881.35 2903.56 2917.24 2927.53 2940.54 2954.95 2976.57 2999.48 3015.13 3035.97 3059.67 3085.14 3117.35 3153.29 3187.54 3224.72 3262.85 3292.37 3316.33 3321.36 3300.40 3277.48 3257.63 3233.88 3207.39 3184.36 3165.73 3152.45 3146.76 3152.14 3166.50 3184.02 3203.03 3221.06 3234.65 3241.74 3244.20 3244.48 3242.26 3241.65 3244.40 3250.28 3257.01 3264.14 3271.09 3277.94 3286.06 3296.33 3306.07 3314.20 3321.13 3325.58 3313.84 3277.52
2930.35 2928.98 2931.76 2934.62 2938.72 2944.09 2947.95 2950.24 2951.36 2951.49 2954.09 2958.65 2966.30 2978.91 2991.39 3005.39 3024.89 3049.37 3074.28 3095.59 3117.32 3140.38 3158.94 3172.57 3178.75 3174.83 3163.63 3144.93 3105.72 3067.67 3035.85 3009.97 2984.22 2969.25 2970.71 2971.48 2963.92 2961.42 2972.42 2988.62 3002.28 3029.17 3074.65 3065.88 3026.19 3000.65 2982.68 2953.76 2921.88 2903.72 2892.13 2879.18 2862.85 2846.10 2837.63 2835.42 2836.85 2845.07 2871.55 2909.21 2939.73 2943.79 2940.71 2938.18 2947.09 2961.64 2970.95 2970.10 2958.99 2945.32 2930.20 2909.87 2899.58 2898.73 2898.86 2896.13 2883.96 2872.14 2860.36 2848.68 2838.11 2828.30 2818.57 2815.40 2811.87 2812.32 2826.41 2837.07 2840.09 2834.74 2823.41 2817.80 2819.96 2825.55 2825.71 2824.42 2828.82 2837.12 2837.90 2835.40 2838.58 2855.06 2881.24 2905.20 2920.75 2926.01 2935.98 2947.57 2964.45 2984.44 3003.03 3021.60 3047.04 3074.16 3107.02 3142.62 3176.35 3213.81 3253.49 3288.58 3317.18 3322.86 3301.27 3277.04 3255.38 3233.11 3208.39 3187.99 3172.17 3162.30 3161.99 3171.63 3186.56 3207.79 3232.34 3249.53 3255.72 3255.57 3253.93 3252.56 3251.73 3252.16 3254.86 3259.79 3265.88 3272.66 3279.92 3287.88 3297.26 3307.15 3315.35 3321.95 3326.18 3324.62 3302.41 3269.85
2919.88 2918.25 2920.82 2923.77 2929.37 2934.56 2938.13 2940.28 2941.29 2942.55 2949.55 2958.94 2969.35 2981.34 2993.35 3008.18 3028.02 3053.65 3079.60 3101.79 3124.53 3146.11 3162.43 3176.12 3183.41 3178.77 3164.70 3150.04 3110.95 3069.57 3038.10 3015.26 2997.30 2992.56 2981.77 2975.26 2971.18 2969.06 2972.75 2984.81 3006.18 3030.65 3065.65 3057.07 3026.88 3006.88 2985.21 2949.99 2923.58 2910.18 2898.51 2885.83 2868.65 2849.29 2838.54 2839.18 2843.14 2851.54 2872.84 2907.32 2935.06 2937.86 2937.46 2941.17 2954.45 2974.47 2991.14 2991.93 2974.47 2951.83 2933.79 2915.77 2901.63 2897.66 2894.86 2892.12 2886.93 2878.09 2866.86 2855.30 2844.05 2834.03 2826.28 2825.77 2823.87 2822.90 2836.60 2853.14 2865.46 2865.15 2850.99 2834.60 2825.09 2829.46 2834.12 2836.15 2842.79 2853.29 2853.25 2843.67 2839.75 2855.79 2880.80 2905.38 2922.60 2928.33 2933.45 2940.43 2949.98 2965.72 2987.71 3010.85 3036.22 3065.40 3098.67 3133.85 3167.15 3204.86 3244.24 3283.18 3315.79 3324.56 3304.43 3279.13 3255.76 3233.39 3211.26 3196.77 3186.91 3179.45 3180.63 3196.13 3212.67 3237.39 3260.47 3267.49 3267.06 3264.88 3261.86 3260.34 3261.58 3262.67 3264.95 3268.90 3274.22 3280.90 3288.81 3297.46 3307.15 3316.49 3323.22 3327.37 3324.87 3305.27 3278.96 3251.50
2909.14 2907.00 2908.88 2913.68 2920.34 2924.96 2928.46 2933.79 2938.39 2943.88 2953.07 2962.67 2973.26 2984.57 2995.48 3011.18 3032.80 3059.56 3086.10 3107.64 3131.10 3152.42 3169.00 3181.24 3187.52 3186.10 3177.62 3166.35 3123.71 3078.59 3048.63 3027.97 3019.98 3018.24 3002.76 2992.25 2986.68 2987.21 2988.02 2995.12 3013.64 3034.42 3058.27 3046.93 3026.89 3012.16 2989.58 2952.93 2929.84 2917.75 2905.81 2891.01 2868.62 2848.93 2840.43 2843.79 2850.65 2861.21 2879.56 2904.77 2926.83 2934.61 2937.86 2944.52 2957.20 2977.21 2997.50 3003.03 2986.79 2961.82 2941.32 2927.31 2910.82 2901.54 2899.69 2895.28 2890.31 2883.02 2872.72 2861.39 2850.29 2840.60 2834.35 2831.47 2830.43 2832.31 2843.68 2861.99 2883.00 2892.55 2878.97 2860.18 2844.17 2838.72 2843.30 2847.84 2854.10 2862.31 2864.74 2854.11 2845.87 2860.94 2882.55 2906.12 2925.73 2931.14 2931.48 2933.08 2935.71 2950.45 2974.66 3002.46 3030.20 3060.88 3092.90 3127.28 3161.05 3197.68 3237.92 3278.06 3312.79 3327.35 3311.65 3285.49 3259.62 3237.97 3222.43 3213.72 3206.71 3200.38 3201.18 3219.23 3239.19 3264.01 3279.78 3278.90 3273.97 3270.63 3268.12 3267.73 3269.64 3272.00 3274.84 3277.79 3282.13 3289.47 3297.82 3307.28 3317.37 3325.10 3328.36 3324.68 3306.04 3275.66 3253.76 3233.63
2900.29 2899.13 2900.65 2904.36 2912.23 2918.51 2923.49 2932.04 2940.24 2947.76 2957.47 2966.38 2975.90 2986.65 2997.87 3014.81 3037.80 3066.16 3091.18 3114.37 3137.51 3158.44 3175.67 3185.86 3191.94 3194.91 3192.97 3185.85 3151.83 3100.57 3068.79 3048.86 3043.79 3043.96 3038.58 3027.00 3014.95 3015.24 3017.05 3017.98 3030.79 3042.09 3048.13 3040.39 3031.66 3020.43 2997.70 2962.76 2936.68 2919.65 2903.80 2886.35 2864.63 2850.29 2842.93 2847.23 2855.74 2868.58 2886.49 2907.27 2933.49 2943.75 2944.45 2950.43 2962.53 2979.76 3003.46 3011.33 2997.29 2974.81 2953.88 2937.20 2923.68 2915.16 2912.78 2905.34 2895.70 2887.42 2878.50 2867.59 2856.88 2846.90 2839.63 2836.81 2838.13 2839.05 2846.45 2863.43 2883.39 2899.40 2900.31 2886.66 2869.42 2855.03 2855.25 2862.03 2869.12 2876.06 2879.21 2869.39 2859.30 2874.70 2897.08 2918.27 2936.86 2940.20 2933.45 2931.95 2933.29 2947.55 2973.17 2999.67 3028.45 3060.86 3091.67 3123.80 3158.10 3194.58 3236.11 3276.42 3310.56 3330.81 3322.25 3296.72 3270.44 3251.62 3241.46 3233.87 3227.92 3223.53 3223.71 3239.88 3262.16 3281.98 3288.46 3285.51 3279.65 3275.71 3273.88 3274.74 3277.19 3280.63 3284.29 3287.57 3291.71 3298.43 3307.42 3317.41 3326.56 3333.29 3326.15 3303.34 3272.12 3244.77 3221.55 3199.02
2894.19 2895.68 2898.54 2902.56 2910.16 2918.26 2925.36 2934.32 2942.79 2949.69 2958.29 2966.12 2976.03 2987.55 3000.16 3017.41 3040.10 3068.72 3093.31 3119.18 3143.77 3164.85 3181.20 3189.54 3196.10 3202.80 3209.14 3206.73 3181.39 3127.57 3093.10 3078.21 3074.57 3076.15 3074.08 3061.12 3045.25 3041.52 3040.54 3039.96 3049.44 3055.39 3051.10 3047.30 3044.67 3036.06 3015.02 2980.93 2947.29 2922.06 2899.73 2883.00 2867.89 2855.99 2848.48 2850.44 2859.88 2877.73 2896.21 2916.39 2940.94 2954.49 2957.68 2961.22 2971.16 2986.62 3012.09 3019.60 3007.82 2991.85 2974.47 2955.78 2941.14 2932.87 2927.52 2916.46 2900.91 2891.14 2883.49 2873.72 2863.20 2853.77 2845.21 2841.46 2844.09 2843.74 2847.56 2864.02 2880.28 2895.83 2906.64 2906.86 2894.34 2875.17 2868.85 2876.70 2886.15 2896.08 2899.76 2888.89 2873.88 2883.78 2903.54 2919.48 2934.29 2943.13 2937.22 2932.81 2938.25 2954.31 2979.82 3002.98 3032.34 3064.42 3095.14 3127.00 3160.88 3199.10 3240.76 3279.57 3312.73 3338.32 3336.22 3314.97 3290.20 3270.46 3259.58 3254.40 3251.60 3249.94 3250.71 3263.97 3284.83 3298.01 3298.21 3292.49 3285.70 3280.52 3278.14 3279.63 3283.97 3289.04 3293.83 3298.02 3302.27 3308.88 3317.68 3326.05 3334.41 3337.97 3316.16 3288.92 3248.65 3211.19 3180.11 3155.61
2888.08 2893.68 2899.39 2904.94 2911.73 2920.29 2927.09 2935.10 2943.15 2949.05 2955.22 2962.28 2974.18 2987.31 3000.82 3018.43 3041.15 3068.84 3093.74 3121.74 3147.41 3169.42 3184.37 3192.80 3200.33 3209.46 3219.44 3222.89 3203.87 3154.08 3121.90 3110.12 3104.10 3105.23 3098.71 3084.27 3072.54 3067.38 3059.57 3057.34 3064.17 3067.29 3060.87 3056.58 3058.09 3053.44 3032.00 3000.35 2967.11 2936.31 2910.57 2894.03 2878.09 2862.85 2854.02 2854.11 2862.92 2884.70 2906.40 2924.09 2944.97 2965.45 2975.25 2977.48 2985.42 2998.84 3020.90 3029.65 3017.05 3006.30 2993.97 2976.85 2959.71 2947.37 2939.24 2923.69 2903.85 2893.33 2885.81 2877.38 2867.99 2860.25 2852.71 2847.77 2848.21 2849.54 2856.45 2867.73 2879.06 2893.43 2907.77 2915.99 2909.77 2893.95 2883.41 2887.63 2898.60 2912.34 2918.92 2910.04 2891.69 2887.18 2899.70 2910.16 2926.10 2944.10 2947.46 2940.69 2949.00 2967.99 2990.46 3012.09 3040.16 3070.01 3101.63 3134.43 3169.44 3208.90 3249.31 3285.44 3319.15 3351.41 3354.47 3337.47 3316.49 3295.49 3283.93 3278.26 3276.95 3277.71 3280.88 3292.54 3310.11 3316.45 3309.96 3300.53 3293.04 3286.90 3283.52 3285.62 3291.58 3297.91 3304.32 3309.80 3314.49 3320.14 3326.49 3333.13 3338.84 3324.19 3287.56 3281.92 3258.18 3210.14 3160.83 3124.95
2886.45 2892.85 2899.42 2904.92 2910.84 2919.04 2925.57 2932.36 2940.05 2945.59 2951.43 2958.90 2970.29 2985.19 2999.67 3017.92 3040.38 3066.43 3093.07 3122.58 3148.83 3170.38 3184.93 3195.19 3204.55 3214.64 3223.22 3227.67 3214.42 3179.05 3149.21 3130.63 3118.52 3119.56 3111.63 3098.94 3094.88 3093.89 3084.84 3076.38 3082.01 3080.45 3069.20 3065.49 3071.75 3069.16 3048.36 3020.11 2989.86 2955.43 2926.74 2905.91 2886.64 2867.81 2857.62 2859.37 2867.31 2886.07 2909.37 2928.43 2948.35 2971.16 2989.47 2995.28 3001.06 3012.43 3030.55 3038.27 3024.09 3010.48 2999.41 2986.91 2972.54 2957.69 2949.24 2933.83 2909.54 2895.06 2884.80 2877.97 2871.65 2865.60 2860.05 2855.74 2852.74 2854.35 2861.71 2870.57 2879.55 2892.06 2906.68 2920.16 2919.96 2908.09 2898.82 2900.95 2908.88 2921.29 2927.92 2925.35 2912.64 2897.51 2897.63 2906.88 2926.06 2949.37 2966.60 2963.36 2966.17 2986.02 3005.63 3025.11 3049.12 3077.14 3109.11 3143.75 3180.58 3219.81 3258.02 3290.63 3324.73 3360.01 3371.02 3360.32 3347.14 3326.21 3311.52 3304.23 3301.46 3302.38 3309.12 3320.62 3329.59 3328.66 3321.39 3310.44 3300.54 3294.49 3292.67 3294.53 3299.95 3308.44 3316.71 3321.65 3324.81 3328.53 3333.59 3339.38 3334.38 3293.83 3255.76 3254.96 3245.35 3205.25 3158.25 3118.97
2886.20 2891.03 2896.64 2901.39 2906.46 2913.71 2920.62 2926.81 2933.70 2940.11 2948.51 2958.41 2968.64 2981.86 2997.01 3016.32 3037.28 3063.15 3093.30 3121.78 3147.00 3166.87 3182.14 3194.39 3205.31 3215.87 3223.78 3226.02 3217.76 3201.32 3181.85 3153.36 3134.42 3128.29 3123.40 3115.75 3115.18 3114.24 3103.80 3092.23 3093.42 3087.76 3077.14 3078.88 3090.95 3086.08 3059.07 3034.28 3013.08 2976.60 2932.93 2908.57 2887.84 2871.00 2862.81 2867.95 2876.93 2891.90 2913.40 2932.96 2952.44 2973.02 2995.13 3007.16 3009.90 3018.05 3032.84 3038.33 3024.97 3010.13 2998.88 2990.21 2980.32 2967.26 2961.74 2948.39 2921.41 2900.04 2887.70 2880.32 2875.56 2870.59 2865.41 2860.76 2856.83 2856.58 2862.63 2872.43 2882.47 2892.09 2903.14 2917.29 2924.29 2919.79 2912.71 2916.40 2922.74 2929.20 2935.12 2936.36 2927.17 2910.38 2909.98 2917.40 2926.97 2949.69 2976.94 2986.98 2990.84 3005.16 3020.32 3037.34 3057.66 3084.74 3117.06 3154.00 3189.98 3230.40 3264.33 3290.55 3319.81 3347.40 3362.96 3366.16 3366.94 3358.11 3345.00 3337.66 3334.15 3334.23 3339.04 3343.92 3343.91 3337.87 3329.68 3320.02 3309.20 3301.82 3301.27 3303.76 3310.77 3320.04 3326.34 3329.85 3332.29 3335.24 3339.46 3342.18 3321.82 3274.71 3225.08 3213.06 3196.14 3158.17 3121.28 3084.49
2884.55 2887.83 2891.68 2896.13 2900.84 2906.99 2914.39 2920.57 2928.28 2938.59 2949.21 2960.90 2971.01 2981.00 2996.17 3015.56 3035.94 3061.90 3093.60 3118.80 3141.17 3160.05 3176.43 3190.45 3202.44 3212.53 3220.30 3221.89 3217.62 3210.88 3206.72 3193.36 3178.36 3162.21 3147.66 3138.57 3134.30 3126.18 3113.98 3107.41 3104.75 3096.93 3090.14 3092.69 3109.94 3103.36 3067.88 3052.42 3030.32 2989.04 2938.65 2909.30 2890.39 2877.27 2873.09 2879.91 2889.15 2904.09 2923.15 2937.94 2959.82 2982.02 3003.73 3018.25 3017.12 3019.94 3033.00 3037.37 3024.27 3010.41 2999.96 2992.07 2984.28 2978.83 2977.48 2964.73 2937.08 2912.40 2898.96 2888.97 2881.47 2875.94 2870.53 2865.08 2860.34 2858.36 2863.54 2873.76 2884.20 2892.97 2901.70 2914.54 2923.80 2925.40 2921.65 2925.28 2934.68 2939.83 2942.73 2945.10 2939.18 2927.74 2931.16 2935.90 2937.57 2950.66 2980.06 3001.66 3011.85 3022.46 3033.69 3046.55 3065.09 3091.08 3122.45 3160.36 3195.17 3233.91 3262.65 3282.54 3304.20 3326.67 3343.09 3354.24 3368.94 3380.50 3376.30 3372.38 3370.41 3370.01 3368.15 3362.08 3354.04 3345.69 3336.99 3327.66 3318.03 3311.90 3312.71 3316.90 3322.96 3329.32 3334.45 3337.78 3338.95 3338.77 3337.04 3321.78 3286.17 3242.94 3193.74 3168.87 3138.27 3098.61 3069.66 3040.76
2880.51 2883.50 2885.64 2890.34 2896.49 2902.34 2911.56 2919.43 2927.89 2938.75 2950.24 2962.80 2974.49 2986.58 3002.56 3022.07 3040.80 3065.75 3094.71 3118.28 3137.40 3154.66 3171.37 3186.79 3199.03 3208.21 3215.05 3217.00 3215.41 3213.08 3212.01 3210.90 3209.26 3201.74 3188.74 3174.62 3156.40 3142.21 3131.88 3126.84 3118.86 3112.70 3109.13 3108.43 3118.84 3106.83 3077.40 3065.39 3038.18 2994.54 2947.00 2920.29 2902.39 2889.86 2884.05 2891.83 2905.68 2921.63 2933.60 2948.16 2967.35 2988.42 3013.39 3026.61 3024.48 3026.47 3038.66 3036.98 3022.48 3010.15 3000.95 2994.07 2988.98 2987.52 2984.78 2977.03 2951.54 2930.56 2915.43 2900.20 2889.61 2881.80 2875.39 2869.28 2863.53 2860.10 2864.54 2874.15 2884.26 2894.50 2904.56 2914.57 2922.97 2927.59 2928.00 2931.49 2940.37 2946.33 2950.05 2951.88 2949.17 2941.67 2943.78 2951.34 2952.88 2958.57 2982.35 3006.41 3021.18 3033.80 3045.85 3056.45 3072.49 3094.49 3121.99 3156.98 3190.85 3224.33 3248.78 3267.47 3285.68 3306.51 3326.52 3344.27 3366.64 3388.00 3400.28 3404.17 3402.96 3397.49 3385.78 3373.11 3362.22 3352.63 3343.92 3334.58 3325.60 3321.61 3324.35 3328.11 3332.38 3337.78 3342.71 3345.07 3343.92 3332.60 3309.98 3279.40 3242.39 3197.66 3155.01 3123.37 3095.16 3066.43 3040.90 3018.86
2875.91 2878.57 2881.00 2886.88 2894.68 2902.31 2913.10 2923.22 2931.69 2940.39 2951.25 2963.01 2976.90 2990.81 3007.29 3028.55 3052.09 3077.04 3102.63 3123.31 3140.42 3155.87 3171.04 3185.59 3196.66 3204.81 3210.39 3213.22 3215.04 3215.83 3216.88 3218.70 3220.02 3217.75 3212.38 3203.56 3189.72 3175.25 3163.13 3154.02 3144.11 3137.80 3128.51 3124.75 3125.73 3109.25 3088.34 3074.39 3044.69 3003.56 2962.14 2935.00 2920.36 2907.25 2899.51 2913.15 2944.17 2957.86 2954.28 2962.00 2981.87 2994.98 3014.20 3034.16 3036.13 3034.67 3036.46 3028.74 3016.87 3007.13 3000.21 2995.55 2994.01 2997.02 2994.25 2985.24 2966.63 2948.01 2931.92 2913.87 2898.42 2888.71 2880.14 2873.25 2866.57 2861.57 2864.78 2873.56 2883.29 2894.99 2907.04 2917.32 2923.92 2929.76 2933.84 2935.82 2939.30 2947.17 2956.72 2960.23 2960.71 2955.37 2951.44 2960.48 2968.10 2976.15 2988.80 3008.11 3024.21 3039.57 3053.63 3068.75 3081.63 3095.41 3115.18 3144.89 3176.48 3204.40 3227.22 3247.26 3266.36 3288.17 3313.99 3339.06 3364.51 3387.81 3407.69 3422.20 3423.46 3409.15 3394.24 3380.94 3369.16 3358.84 3350.19 3341.15 3335.01 3333.63 3335.34 3337.84 3341.25 3345.92 3350.04 3351.08 3344.26 3318.41 3277.48 3252.45 3216.46 3162.65 3117.50 3091.14 3072.51 3049.68 3024.70 3009.27
2871.06 2875.40 2879.86 2886.32 2894.15 2902.79 2915.33 2926.89 2936.58 2945.90 2955.97 2966.64 2979.30 2992.60 3009.16 3035.12 3063.02 3089.61 3115.47 3135.61 3151.93 3163.44 3174.02 3185.19 3194.62 3202.31 3208.25 3213.48 3217.03 3219.11 3221.14 3223.27 3225.14 3225.10 3221.96 3216.71 3211.34 3207.26 3202.44 3193.31 3191.10 3186.50 3174.09 3151.82 3132.95 3112.90 3095.53 3079.48 3053.82 3019.12 2984.65 2955.31 2940.20 2925.81 2917.64 2941.56 2986.50 2991.84 2983.80 2984.30 2996.16 3007.14 3018.17 3038.20 3042.44 3037.59 3029.25 3021.29 3011.84 3002.91 2999.95 2998.41 2998.45 3002.32 3000.66 2992.72 2981.90 2963.91 2945.28 2927.63 2910.14 2897.04 2885.97 2877.20 2869.75 2863.16 2864.50 2872.42 2881.26 2893.45 2907.59 2920.78 2927.06 2933.35 2939.19 2939.64 2939.59 2949.39 2965.68 2972.88 2974.45 2971.17 2962.73 2957.62 2964.53 2979.09 2992.55 3007.32 3022.16 3038.81 3055.54 3074.27 3084.91 3090.94 3103.10 3127.71 3156.50 3179.71 3199.12 3221.95 3245.13 3272.43 3304.58 3335.67 3362.75 3384.27 3406.08 3425.87 3434.22 3415.70 3401.01 3388.08 3376.24 3366.18 3357.38 3350.02 3346.89 3347.21 3348.02 3349.62 3352.31 3355.49 3358.07 3357.68 3341.48 3295.39 3247.01 3213.05 3185.73 3128.20 3088.99 3070.35 3055.91 3035.58 3015.89 3004.02
2867.40 2873.83 2879.33 2886.04 2894.17 2903.97 2917.95 2930.52 2941.55 2951.72 2962.22 2973.34 2985.44 2998.73 3016.06 3041.59 3070.20 3100.03 3127.29 3148.25 3161.43 3164.99 3172.58 3183.78 3194.50 3202.65 3208.90 3214.94 3219.37 3222.02 3223.54 3225.48 3227.65 3228.69 3227.30 3224.68 3222.01 3221.87 3223.93 3224.53 3228.15 3227.29 3217.20 3174.07 3134.48 3113.79 3093.81 3081.89 3068.02 3033.14 2995.84 2970.00 2958.01 2946.83 2939.04 2973.84 3011.35 3011.66 3009.44 3007.21 3009.55 3018.79 3028.54 3040.12 3040.67 3033.45 3024.26 3018.28 3011.56 3005.87 3004.20 3003.15 3003.44 3006.04 3004.45 3000.20 2992.15 2977.46 2957.50 2939.06 2922.72 2907.33 2892.60 2880.61 2872.65 2866.06 2865.92 2871.81 2879.20 2890.40 2905.18 2920.79 2928.40 2934.82 2941.14 2943.05 2941.40 2953.41 2977.25 2984.75 2985.72 2983.61 2974.93 2959.77 2953.93 2963.48 2982.62 3001.12 3014.52 3028.47 3045.83 3061.97 3071.70 3078.67 3090.26 3109.84 3135.48 3156.09 3174.86 3198.10 3227.54 3259.81 3297.54 3331.70 3357.60 3379.05 3402.35 3423.79 3435.23 3423.99 3409.34 3395.80 3384.21 3374.98 3367.63 3364.17 3363.34 3363.00 3362.81 3363.30 3364.63 3366.35 3367.51 3363.07 3337.18 3290.43 3243.10 3196.09 3151.53 3103.33 3072.06 3053.13 3042.58 3027.54 3018.02 3009.36
2866.52 2872.87 2878.75 2885.51 2894.17 2905.09 2920.20 2934.00 2945.70 2955.73 2965.63 2976.36 2987.72 3001.59 3019.73 3044.16 3073.34 3102.53 3125.30 3142.89 3152.73 3157.50 3169.73 3184.53 3196.12 3204.61 3210.66 3216.51 3221.15 3223.66 3225.49 3227.11 3229.29 3231.06 3231.29 3230.72 3229.57 3230.71 3234.40 3239.93 3245.16 3245.55 3228.25 3174.44 3133.80 3113.13 3096.75 3093.38 3082.58 3043.67 3005.89 2985.55 2975.29 2965.89 2964.85 3005.37 3028.49 3027.00 3032.47 3025.37 3021.17 3026.40 3034.24 3041.09 3039.68 3031.65 3022.26 3017.90 3015.28 3012.71 3010.16 3009.05 3009.65 3010.84 3008.30 3004.76 3000.13 2988.72 2970.47 2950.54 2934.02 2917.33 2898.50 2884.28 2876.25 2870.63 2869.46 2872.75 2878.39 2887.97 2901.21 2918.23 2928.21 2935.05 2940.48 2944.77 2944.30 2953.87 2979.26 2990.73 2993.20 2992.15 2985.55 2968.71 2954.07 2953.21 2963.99 2985.03 3003.15 3014.24 3028.06 3043.87 3054.85 3066.91 3080.32 3097.44 3119.89 3139.42 3158.49 3183.64 3215.67 3251.63 3290.57 3324.79 3349.53 3373.28 3397.98 3422.36 3440.55 3438.59 3421.16 3404.57 3393.59 3386.88 3384.53 3383.51 3382.75 3381.32 3379.24 3377.87 3377.65 3377.93 3378.38 3371.39 3349.46 3313.65 3268.60 3223.17 3142.84 3085.62 3059.85 3043.66 3037.89 3034.90 3030.30 3022.53
2866.39 2872.21 2878.00 2884.49 2893.68 2905.58 2922.02 2936.81 2949.00 2959.14 2967.03 2975.57 2983.98 2997.12 3016.62 3041.07 3067.08 3089.92 3106.10 3119.85 3134.89 3151.47 3170.10 3186.72 3198.53 3206.38 3212.73 3218.46 3222.29 3224.39 3226.67 3228.78 3230.32 3232.37 3233.91 3234.72 3235.15 3236.74 3240.22 3245.74 3251.67 3253.79 3228.64 3171.64 3135.01 3120.26 3109.04 3105.26 3095.76 3062.04 3027.88 3007.71 2995.54 2985.71 2995.64 3033.79 3046.69 3052.92 3060.41 3048.49 3036.45 3034.02 3039.91 3044.38 3041.50 3035.12 3027.69 3022.89 3021.32 3019.13 3016.08 3013.77 3012.82 3012.24 3010.28 3007.39 3004.66 2999.54 2987.24 2966.41 2945.89 2928.52 2908.99 2892.88 2881.60 2874.52 2873.10 2875.28 2878.35 2885.45 2897.43 2913.55 2927.05 2936.59 2942.78 2946.65 2950.11 2955.45 2970.83 2989.74 2998.55 3000.39 2994.23 2978.10 2958.46 2951.93 2952.85 2961.55 2979.97 2996.56 3010.45 3025.08 3041.09 3059.76 3078.69 3098.18 3118.77 3136.21 3153.40 3177.53 3210.25 3246.43 3283.60 3316.51 3344.45 3370.79 3396.41 3422.04 3441.33 3447.53 3433.92 3414.74 3406.13 3404.55 3405.03 3405.60 3405.06 3401.29 3396.52 3393.66 3392.35 3391.40 3389.32 3382.97 3366.71 3330.19 3273.85 3202.03 3113.29 3073.63 3054.41 3043.82 3043.56 3044.08 3039.16 3031.61
2865.94 2871.89 2877.27 2883.27 2892.95 2905.75 2922.91 2938.39 2951.26 2961.89 2967.53 2972.56 2978.39 2990.93 3009.47 3029.81 3049.07 3066.27 3078.88 3092.38 3115.73 3146.56 3170.92 3191.75 3202.93 3209.08 3215.24 3220.63 3223.46 3225.30 3227.40 3229.67 3231.24 3232.97 3235.13 3236.82 3238.12 3240.11 3243.91 3249.30 3256.12 3260.20 3228.27 3171.10 3144.13 3137.78 3124.71 3116.24 3111.25 3086.44 3057.96 3036.93 3021.79 3009.86 3023.50 3058.09 3067.36 3078.76 3084.12 3069.67 3048.70 3039.04 3044.83 3050.44 3048.25 3043.05 3039.13 3035.99 3030.54 3024.20 3019.17 3016.40 3015.61 3014.79 3012.65 3010.15 3007.72 3005.10 3000.15 2983.94 2960.07 2941.59 2924.21 2906.12 2890.44 2879.23 2876.59 2878.86 2881.25 2886.02 2895.10 2906.28 2923.31 2936.69 2945.02 2949.73 2953.33 2957.36 2966.31 2980.93 2997.74 3005.81 3002.38 2986.34 2964.36 2952.56 2951.74 2952.09 2957.13 2973.10 2993.19 3013.72 3038.67 3068.18 3089.95 3107.91 3124.91 3139.96 3154.77 3177.58 3208.74 3241.98 3275.25 3306.95 3338.78 3370.54 3402.30 3425.55 3439.92 3447.23 3441.09 3426.86 3422.95 3424.49 3426.84 3429.49 3429.42 3423.08 3414.70 3409.24 3406.46 3403.81 3390.68 3366.25 3354.59 3317.87 3252.84 3168.60 3102.06 3074.44 3058.51 3050.81 3050.16 3049.91 3046.15 3039.25
